x,y,z
3.672496426,3.724220924,-0.8684191
3.449883899,3.017875594,-0.845960107
2.953221394,2.990845117,-0.858736599
2.906683093,2.536792289,-0.86144488
2.491360395,2.522571694,-0.863108601
2.459306747,2.141134614,-0.858916157
2.152103292,2.177923643,-0.869821381
17.08411841,14.95068354,6.939027221
16.03316594,15.14108517,6.480381713
16.91835081,14.81552634,5.933308066
17.53061852,15.36088531,5.225840491
34.29135711,34.83169433,8.097103879
15.70276412,14.80834139,2.975430752
14.61891384,14.83372504,2.668702621
31.66658376,34.55422661,5.557346585
12.34385842,10.81722439,1.815480272
12.38177774,11.66916997,1.712324953
12.39624954,12.56918181,1.61095734
11.93666128,10.44455984,0.589636994
11.43774765,10.76515701,0.433249951
11.43309482,11.57479774,0.293923976
11.2760554,12.27674887,0.144598542
6.863028118,5.995628509,-0.327791919
6.815779135,5.948061327,-0.656218479
7.177021706,7.245458719,-0.933686237
6.047745574,5.270559241,-0.877995621
4.801541964,4.844451678,-0.877275768
4.440040037,3.86550482,-0.863954316
3.685294554,3.714336819,-0.868746687
3.458384107,3.006632144,-0.845778553
2.956168574,2.975515233,-0.85693505
2.932146794,2.543210323,-0.866675009
2.494978557,2.510781153,-0.861689414
2.464401409,2.132314223,-0.858406717
2.151314438,2.163807132,-0.866815399
17.1703159,14.93334454,6.955396089
16.05365911,15.06753122,6.469949947
16.98852326,14.78513415,5.941981734
17.75942048,15.46531037,5.279877583
34.52708912,34.87484441,9.991596809
15.68880716,14.71427881,3.774861451
34.46262297,34.79150888,8.112302586
17.70122474,15.41626151,3.467487077
15.75028912,14.7621285,2.975840355
14.66924363,14.79373509,2.669592162
12.34400857,10.75058087,1.81064276
12.35724756,11.57467315,1.704013681
12.39056123,12.48655734,1.605232195
12.02320156,10.46196407,1.175704823
11.99051624,10.4269058,0.590714347
11.43494952,10.69655517,0.431898893
11.27895937,11.34889955,0.289065005
11.25326461,12.17673701,0.143826542
6.985527857,6.064958875,-0.332752457
6.812144307,5.90817161,-0.654120335
7.192890003,7.217057537,-0.932865661
6.015045417,5.209678208,-0.870923769
4.820584063,4.833911611,-0.878041151
4.435417633,3.83762255,-0.860759865
3.698066722,3.704409357,-0.869074274
3.479497942,3.006294634,-0.84868255
2.959742104,2.960888471,-0.85533371
2.894842122,2.49533253,-0.853381801
2.481373375,2.481814718,-0.854356909
2.470931659,2.124743335,-0.858406716
2.161344304,2.160597093,-0.868181774
17.01129424,14.70361743,6.8726739
16.20785268,15.11899249,6.513368355
19.03468323,16.46355367,6.639957848
17.79424039,15.39989648,5.276158254
34.8607459,34.9964619,10.05703508
15.85923963,14.78293303,3.80493867
34.71962895,34.83655239,8.147602843
32.1398512,34.67789688,7.374475086
16.39905402,14.19394426,3.203860023
15.78898124,14.70766062,2.974611307
14.48057408,14.51413164,2.627141018
14.50443284,15.63340416,2.528582099
12.32657976,10.66907811,1.80327658
12.34754804,11.4946741,1.697805261
12.36689238,12.38646828,1.597235159
12.12011552,10.4811296,1.182031737
12.0254733,10.39268449,0.590862942
11.45526661,10.64985162,0.431430161
11.31160394,11.3121217,0.289010795
11.22451813,12.07112238,0.142985148
6.966270697,6.010856098,-0.330955168
6.819661852,5.878128077,-0.653107414
7.193138114,7.173157752,-0.930039386
6.031753798,5.191847912,-0.871032607
4.826259023,4.809997729,-0.876382772
4.441168925,3.818836384,-0.859598231
3.705918681,3.689566446,-0.868255307
3.490943043,2.997527317,-0.849227038
2.972980668,2.955938906,-0.856534743
2.921755104,2.502948041,-0.859047761
2.483463298,2.468710293,-0.852464642
2.476703582,2.11652436,-0.858151967
2.182293032,2.168193622,-0.87392045
17.35665286,14.90933985,6.993688019
16.33296209,15.14225359,6.544945941
19.05797321,16.38175833,6.630518857
15.62500651,13.43892896,4.620713156
35.0685339,34.98970437,10.08596288
32.49849115,34.90227004,9.241462966
34.92274567,34.8260053,8.170156287
16.64276754,14.31581279,3.24287794
16.63074637,15.39675257,3.124284291
14.52011503,14.46473757,2.626251477
14.5631689,15.60044656,2.530466082
12.3389095,10.61370982,1.800308149
12.34696953,11.42362815,1.692898607
12.38789653,12.33160726,1.595054106
12.11364081,10.4107451,1.178279743
12.08383459,10.37853037,0.592163158
11.5407474,10.66350135,0.433415384
11.22286489,11.15472411,0.285867812
11.22802396,12.00084911,0.142560108
6.829227363,6.301726213,-0.42083123
6.268826323,6.682988507,-0.929289208
5.422359738,4.993024348,-0.876725679
4.333165028,4.616536613,-0.876887981
4.0446193,3.72006903,-0.859060554
3.384451066,3.605023686,-0.871628572
3.214121657,2.952486941,-0.848032111
2.755631966,2.935531205,-0.864333599
2.704364164,2.480484893,-0.855239066
2.305804992,2.454791596,-0.856088108
2.323997269,2.128248124,-0.861908247
2.020652316,2.15196688,-0.871829537
17.40376613,14.8572621,6.99427262
16.76811582,15.45029325,6.700294718
18.89346858,16.13982479,6.55602688
15.65800413,13.38395483,4.618307033
32.75308194,34.96002013,9.283315919
16.17934231,14.89683161,3.859734413
35.13873417,34.8270368,8.195650862
32.57986376,34.72286294,7.426408854
17.71227443,15.14148435,3.442205885
16.68446664,15.35169459,3.12551334
14.55244146,14.40825775,2.62409069
14.66399155,15.61215152,2.539650204
12.34874836,10.55642936,1.797009867
12.34240857,11.3493273,1.687491274
12.35346173,12.2221017,1.585784749
12.09889633,10.32713618,0.591345918
11.26059072,11.12375327,0.285958143
11.29014931,11.99328571,0.142881049
6.83748536,6.270617139,-0.420152602
6.284519849,6.658659786,-0.928582894
5.442047828,4.980387677,-0.877434319
4.354789579,4.611142782,-0.878396993
4.065493128,3.716308592,-0.861068397
3.390084935,3.588896141,-0.870239842
3.257962622,2.974381243,-0.857187623
2.752540873,2.914268739,-0.860555559
2.703324533,2.464303017,-0.852515371
2.319316755,2.454045313,-0.858305283
2.34834951,2.137339497,-0.8685038
2.022634637,2.140877605,-0.869846847
17.46312178,14.81555262,6.999826343
16.40080129,15.0190722,6.535077798
18.4291317,15.64562048,6.378216686
16.7371857,16.50797039,5.705967543
15.76443571,13.39144632,4.637558859
17.44799952,15.97076938,5.055805495
32.89385454,34.89508676,9.292828817
16.25911966,14.87837529,3.867858763
35.39933655,34.8706909,8.231442259
14.66777137,15.53676844,3.332560624
17.77673935,15.10244505,3.445713024
14.70404016,14.46929161,2.643409748
14.69272215,15.54688167,2.536353352
12.38562208,10.52235557,1.797669571
12.34118077,11.27851786,1.682584619
12.35468582,12.14853443,1.58115013
12.08403665,10.2505354,0.58907975
11.22474636,11.0205073,0.284187944
11.16873242,11.79161247,0.140885992
6.900251174,6.289313707,-0.422821817
6.288476517,6.6220335,-0.926161276
5.448487077,4.955650779,-0.876016982
4.355269271,4.58339918,-0.87565333
4.080531974,3.707140333,-0.861840694
3.40107964,3.578478545,-0.870239842
3.260529827,2.958435396,-0.855471009
2.779654077,2.924946299,-0.866222649
2.715202723,2.459921161,-0.853877219
2.330173957,2.450429935,-0.859537073
2.345596238,2.121713023,-0.865074147
2.013995859,2.11867472,-0.86333218
17.61377753,14.85067487,7.041918192
16.47518394,14.99451596,6.546355473
18.47482851,15.58713655,6.377451363
16.82522626,16.49327843,5.718704341
15.81961217,13.35497812,4.641715448
17.26181933,15.70329575,4.987873843
33.03521175,34.83033368,9.302530549
16.30104669,14.82510984,3.866994496
15.55892292,15.23279881,3.607047603
14.74666962,15.52464803,3.339649523
17.8509576,15.07144805,3.451120118
14.74907153,14.42480526,2.643536825
14.71434694,15.47438494,2.531878951
12.48391827,10.54009201,1.807234566
12.33963548,11.2078238,1.677677965
12.39474833,12.11335831,1.5815136
12.29345078,10.36348879,0.597735596
11.5258623,10.45474811,0.429224343
11.18909088,10.91828561,0.282435806
11.16346355,11.7138588,0.140365539
6.865467162,6.219155482,-0.419519242
6.30670112,6.600551628,-0.925858604
5.457035459,4.932918497,-0.874954051
4.376155699,4.57717577,-0.877025132
4.097752901,3.699900871,-0.863076299
3.408638978,3.56446851,-0.869371821
3.27250677,2.9510478,-0.856233948
2.761586481,2.888138078,-0.857826977
2.72056571,2.449624353,-0.853196296
2.328970503,2.434165779,-0.856334453
2.346356112,2.109347845,-0.862963548
2.027778186,2.120109633,-0.866447892
16.53320444,14.95484203,6.551148638
18.51589342,15.52479207,6.375155392
16.85277815,16.41920214,5.710920451
15.88218829,13.32456856,4.648059767
17.50214239,15.82406006,5.043264201
35.85124143,34.90328153,10.18711149
33.44013498,35.04131937,9.386238355
16.31357106,14.74530838,3.859215852
15.65931953,15.23728172,3.619468257
14.74985567,15.43290446,3.329632605
16.74595482,14.05073064,3.229141215
16.92576518,15.28845622,3.144222284
15.1552823,14.73138742,2.708230513
14.76037913,15.42773475,2.531643394
12.55807422,10.53687998,1.813281339
12.34072719,11.13991161,1.673171853
12.31827095,11.96495056,1.56706436
12.42237983,10.41379262,1.195789203
12.38110657,10.37257174,0.600447547
11.56307989,10.42402337,0.429417343
11.19741415,10.85954388,0.28180361
11.19173637,11.67161525,0.140270127
6.902042534,5.773133753,-0.323658129
6.829426459,5.706319588,-0.645582983
7.265814313,7.026670296,-0.925389628
6.130527616,5.115273297,-0.873861324
4.888775042,4.725061463,-0.874469283
4.496184059,3.747729136,-0.859017384
3.728722181,3.600081809,-0.860557129
3.524418856,2.933560708,-0.8463231
3.010919689,2.903187414,-0.854532983
2.932774401,2.435390201,-0.851202597
2.491659518,2.402003105,-0.842530217
2.499941666,2.07088224,-0.85509538
2.161263214,2.082403868,-0.852605352
16.46627362,14.80270411,6.506602035
18.56640837,15.47038876,6.376175824
16.83395765,16.30049675,5.687569258
15.90875281,13.26390837,4.643903177
17.25964977,15.50884639,4.959655576
36.13983728,34.96892799,10.23858415
17.02754424,14.19669833,4.114463846
16.41515248,14.74587208,3.872525808
15.54501168,15.0334841,3.582369612
14.77384899,15.36336535,3.324392881
17.93777852,14.95719823,3.450097064
15.18043156,14.66552546,2.70467164
14.8530956,15.42959613,2.539414647
12.63843395,10.53840385,1.820207755
12.33855551,11.06944164,1.668265199
12.3219633,11.89528581,1.562884049
12.34025431,12.80669031,1.454350911
12.04195261,11.61685334,0.914959638
12.51194009,10.41701975,0.60523982
11.59947265,10.39250135,0.429582775
11.22635972,10.8209762,0.281695219
11.19347037,11.60196316,0.139845086
6.829794909,6.110966864,-0.4150404
7.497359348,6.701911724,-0.825882009
6.33463216,6.548858609,-0.924042391
5.484978152,4.897357789,-0.874599701
4.429647818,4.576572808,-0.882101004
4.121115221,3.675345355,-0.863230734
3.424281243,3.537118312,-0.867809464
3.281023047,2.922424698,-0.853754335
2.781295834,2.873246411,-0.85845664
2.749371896,2.445182289,-0.85750881
2.333748076,2.409387367,-0.852639086
2.370073538,2.104517902,-0.866920878
2.023403288,2.089713694,-0.859083499
17.91548813,14.82511212,7.10768691
16.52663455,14.76554016,6.51252292
15.85695306,13.13846312,4.616994301
17.12479941,15.29297791,4.907400421
33.73978,34.92373535,9.410018227
16.35671602,14.60295164,3.848152991
15.69561743,15.08621915,3.606393859
14.80923302,15.30589598,3.321773136
18.07042017,14.97405262,3.466756562
15.21962946,14.61338784,2.703654785
12.69978803,10.52367992,1.824385564
12.32047378,10.9851844,1.661255693
12.33181167,11.8319163,1.559521631
12.36769266,12.75660642,1.452965342
12.51381314,10.35374065,0.603790951
11.69251948,10.41137624,0.431843729
11.23640068,10.76435072,0.281117203
11.23597778,11.57474203,0.139931826
6.812678473,6.05812066,-0.412868824
7.48808204,6.652401766,-0.822607927
6.34081573,6.515133643,-0.922024415
5.448728429,4.835030329,-0.866450137
4.435374684,4.554445615,-0.880454783
4.133110751,3.663340068,-0.86338517
3.409004645,3.499788699,-0.86121278
3.284093383,2.90713964,-0.852228397
2.788733549,2.863299268,-0.858036847
2.774373874,2.452215301,-0.862956198
2.350599092,2.411933341,-0.856088108
2.377242057,2.097874862,-0.867184687
2.041851189,2.095861248,-0.864181903
16.8265442,14.94091393,6.612611044
15.87534911,13.06387053,5.424366895
15.74879032,12.96756375,4.573895851
17.17309941,15.24166589,4.907818606
36.47910547,34.86635617,10.2738968
33.95761809,34.93409767,9.440838117
16.82970126,13.85758574,4.04603533
16.28577219,14.45007006,3.821014282
15.73112714,15.02777201,3.603942439
14.87335222,15.27808975,3.325625743
15.51267453,14.8035598,2.747631092
12.76193854,10.50930879,1.828673285
12.31837286,10.91565949,1.656449174
12.32336958,11.75141691,1.553887323
12.37336532,12.6843573,1.449053132
12.43067546,10.22741857,1.187475905
11.76782425,10.41387748,0.433442951
11.18537508,10.64985154,0.279021861
6.866056039,5.636443571,-0.319524308
6.846951498,5.614762305,-0.642327199
7.283236607,6.914931509,-0.919463496
6.14735296,5.034070463,-0.869618248
4.92414198,4.672356646,-0.87306607
4.52053137,3.698044537,-0.857129764
3.775301832,3.57850534,-0.863669205
3.556600418,2.905353496,-0.847593573
3.028974147,2.867270171,-0.852130974
2.971708783,2.421858835,-0.855996837
2.557414137,2.420376951,-0.857195283
2.503138565,2.034975591,-0.849746223
2.183831601,2.065729093,-0.85397167
18.23715273,14.90371287,7.198886305
16.91618495,14.92794459,6.629809604
16.75107356,15.94808564,6.548705814
15.73646178,12.86881145,5.363396109
17.21758002,15.18696734,4.907191566
16.61722356,13.597302,3.984905761
16.52431771,14.57136598,3.866475935
15.79075151,14.99234562,3.607047603
14.90909201,15.22109256,3.323160018
17.53188322,14.34726829,3.346487503
17.94898051,15.81707484,3.297992253
12.87719359,10.5380904,1.840547125
12.31073596,10.84164848,1.650941705
12.33551167,11.69094755,1.550888376
12.33472839,12.56738186,1.44000622
13.484988,11.02565931,1.284954653
11.78770825,10.36716243,0.433001787
6.87148876,6.035322995,-0.414180812
7.523515221,6.601728789,-0.822034947
6.368104139,6.463347969,-0.920208203
5.493975149,4.815251372,-0.868930465
4.491053703,4.555360245,-0.885942166
4.157741038,3.639863235,-0.863848537
3.426957514,3.47529931,-0.860344816
3.282655229,2.870134728,-0.847269171
2.800071598,2.839867905,-0.856147853
2.771760282,2.419774299,-0.857508811
2.353782601,2.385736264,-0.851900047
2.365347294,2.061700202,-0.858214725
2.056019705,2.084658832,-0.864748387
17.84108848,14.48897973,7.024964722
17.10111975,14.99807075,6.684223878
16.78943832,15.8866993,6.544619318
20.38940734,16.57977481,5.89200584
17.2067333,15.08379158,4.890887551
36.90610807,34.84367936,10.3337475
16.61995689,13.51462192,3.975599805
16.52375905,14.48100244,3.855931635
15.82877999,14.93638186,3.60524969
15.10275265,15.32447195,3.355830754
17.76845954,14.45008,3.383167484
18.08908529,15.8422119,3.314789319
15.59383245,14.69925221,2.745978851
12.94956203,10.5311435,1.846264164
12.31174517,10.77565117,1.646635865
12.29737993,11.58340007,1.541619019
12.32490485,12.48054735,1.434382521
13.49011205,10.96096684,1.282232628
11.82698532,10.33752862,0.433277518
11.22356283,10.55567418,0.278353544
6.88771452,6.012242335,-0.414045092
7.565516805,6.597612233,-0.824408643
6.380198671,6.436008478,-0.919098305
5.516209801,4.80489574,-0.870111531
4.512681736,4.549296398,-0.887451236
4.157707672,3.617362672,-0.861531763
3.441071545,3.468264712,-0.86121278
3.285517447,2.854899148,-0.845743233
2.800507954,2.822934952,-0.853629142
2.757838042,2.392750271,-0.85092655
2.409569055,2.427339559,-0.86939133
2.394262659,2.074011985,-0.866393258
2.059028073,2.074937528,-0.863332181
17.86759455,14.41976173,7.017949492
17.03639318,14.8490835,6.641087279
16.83459423,15.83181986,6.543256995
18.30983805,15.95903098,6.145083244
17.28610902,15.0598375,4.90029364
37.07714757,34.79063249,10.35170328
34.60580524,34.95145767,9.531203529
16.64222255,13.44811989,3.971037904
16.72928091,14.57061533,3.893441554
16.01845132,15.02272443,3.637935684
34.51119889,34.80362291,7.644624318
17.78193245,14.37062636,3.377321939
17.997124,15.66436985,3.289115454
16.5863797,15.53903472,2.912351865
12.99881737,10.50510969,1.848682802
12.25841412,10.662734,1.635120129
12.30886793,11.52315772,1.538620189
12.33573984,12.41510284,1.431203806
13.13959106,10.60940335,1.245815978
12.00580222,10.42902573,0.438654215
11.26685106,10.53143175,0.278624477
6.900520606,5.559218268,-0.318733503
6.803752754,6.348981072,-0.511648411
6.903777711,5.555883566,-0.642833659
7.327631316,6.829951993,-0.91709302
6.15390746,4.945520426,-0.864069533
4.950970751,4.611965308,-0.870259587
4.537402068,3.642655389,-0.853935313
3.792189586,3.528822222,-0.860065806
3.544058843,2.841126287,-0.83833721
3.051646995,2.83593602,-0.851130093
2.963385579,2.370022394,-0.847280013
2.580294096,2.397398183,-0.857431796
2.545195544,2.030546278,-0.857642527
2.226717596,2.067797655,-0.863262902
17.31973204,15.00278954,6.733563172
18.31987753,15.86914062,6.13208371
15.92119341,12.78493349,4.578052442
17.34479868,15.01761574,4.903847031
37.40657813,34.88456303,10.41374933
16.68876984,13.40130829,3.972315114
16.93178448,14.65587943,3.930087444
16.07312439,14.98158172,3.639896914
34.75458989,34.83467476,7.674829091
17.42099392,13.99079575,3.300601223
17.74240972,15.34725603,3.233944202
16.75520609,15.6009547,2.933577319
16.51281993,16.53354657,2.770666602
13.0526848,10.48260726,1.851761263
12.27375727,10.61011001,1.632817006
12.28948175,11.43446345,1.531804517
12.29766759,12.30107535,1.422401392
13.41165551,10.76127397,1.268475279
12.08692484,10.43460342,0.440446437
11.28299208,10.48184542,0.278227093
6.883217652,5.510540822,-0.317151894
6.821735063,6.326719712,-0.51153862
6.914558842,5.529693673,-0.642254839
7.349281529,6.808115734,-0.917184215
6.171381243,4.928478138,-0.864395928
4.965096398,4.596753919,-0.870259585
4.557837573,3.636121782,-0.855677736
3.792134505,3.507123977,-0.857608904
3.57891016,2.851073065,-0.84450808
3.050976502,2.817918317,-0.848527872
2.970642724,2.360919802,-0.847280013
2.586923452,2.38881128,-0.857195284
2.549139749,2.020925818,-0.856878392
2.221740762,2.050517907,-0.858890543
17.16971912,13.68343933,6.710736665
17.73577953,15.26819177,6.877070652
17.38188115,16.14667772,6.717340706
18.64619842,16.05194288,6.224797542
15.84288507,12.64230061,4.544361512
17.39079026,14.96433131,4.90384703
16.64757445,13.28442634,3.952790301
16.89826617,14.53642108,3.911937353
16.06762736,14.88459757,3.628293322
34.99359879,34.85968131,7.703955259
16.43236712,13.11410361,3.10565732
17.70377239,15.21913181,3.218375946
16.79425369,15.54139277,2.932052154
14.8424312,14.77015426,2.48277903
13.13217189,10.48033219,1.858467738
12.30096804,10.56786577,1.632116056
12.31572992,11.38859297,1.530713991
12.29293966,12.22112745,1.417511188
13.16389416,10.4962496,1.241990432
14.0963267,12.10685376,1.192510987
12.15984788,10.43262036,0.441935361
11.3290547,10.46006729,0.278570296
6.900091201,5.489397781,-0.317151894
6.835973806,6.301024175,-0.511154348
6.918997706,5.498525529,-0.641097257
7.391379552,6.8050969,-0.919828158
6.184136864,4.907667805,-0.864069533
4.98939401,4.590901887,-0.87204552
4.568196222,3.621506888,-0.855532539
3.802876284,3.495473392,-0.857608904
3.589953372,2.84191098,-0.845052569
3.058163873,2.807219807,-0.848127509
2.978637894,2.352399578,-0.847497927
2.582070401,2.369695059,-0.853174234
2.549251015,2.008308329,-0.85484063
2.220932477,2.03718968,-0.856157849
17.40504107,13.78387871,6.786151321
18.68580937,15.98649196,7.226393924
17.43275063,16.09457912,6.717885729
18.55760335,15.87680822,6.178931053
15.93817513,12.63850069,4.560550612
15.72127251,13.44403155,4.421426108
16.71290366,13.25283807,3.95862941
17.13294119,14.64707666,3.955843088
15.98547692,14.7176261,3.599529788
35.16076648,34.81194256,7.717208472
16.48880061,13.07653701,3.108726243
17.74134233,15.15702375,3.216737294
16.84185486,15.48979498,2.932052154
14.8982655,14.73502298,2.484545234
13.21254699,10.47828592,1.865284126
12.31138759,10.51134212,1.629212117
12.27142248,11.27797659,1.520899371
12.31974119,12.17284825,1.416288697
13.55403618,10.7394754,1.275684939
11.43181335,10.49015666,0.280304344
11.20863197,11.06107732,0.136600954
6.898085005,5.453328238,-0.316289177
6.839811383,6.265858175,-0.510001476
6.90374239,5.451929241,-0.638130912
7.390916601,6.762893018,-0.917184214
6.203847304,4.892365334,-0.864722323
5.002723487,4.574903711,-0.871917966
4.580062296,3.608087099,-0.855677735
3.822322324,3.491774291,-0.859574426
3.609476069,2.839395683,-0.847593573
3.070380986,2.801125861,-0.84912839
2.98967971,2.346262954,-0.848587502
2.610864222,2.381405386,-0.860270226
2.556923365,2.001670034,-0.855350071
2.211532831,2.016109233,-0.850145888
17.43973388,13.7245022,6.783228312
18.95770341,16.11864094,7.312385307
16.94607878,15.5492325,6.511927365
19.43343155,16.52312374,6.453637416
15.96307748,12.5786723,4.556612887
15.73487368,13.37230485,4.413692287
16.65772386,13.12604345,3.936002533
17.34143129,14.73346976,3.993525861
16.03928902,14.67650531,3.601491019
35.33782667,34.77320749,7.73261937
16.37033514,12.90097461,3.078914622
17.74018652,15.06213022,3.208133723
16.4837038,16.20335071,2.740641596
13.33362696,10.50783481,1.877817671
12.3572334,10.48510903,1.631014561
12.26699396,11.2046794,1.516082958
12.30440657,12.08331695,1.410257422
13.40278411,10.55285912,1.258396254
11.52082678,10.5069127,0.281695219
11.2025357,10.98742598,0.136115191
6.826611631,5.776820581,-0.404996899
7.857626779,6.642935476,-0.845035247
6.419143194,6.279638756,-0.910723614
5.539949405,4.678073362,-0.862434452
4.581224908,4.478847563,-0.887314026
4.191559465,3.535325301,-0.857207148
3.495275667,3.416450305,-0.861559977
3.36495975,2.834522365,-0.854898745
2.85187009,2.787846823,-0.856147855
2.801669649,2.356434451,-0.853196294
2.40561646,2.35013396,-0.854856318
2.405111927,2.019673697,-0.859006217
2.120793105,2.072603101,-0.875794974
17.4199844,13.62262601,6.759259613
17.48567911,14.77487775,6.727078662
17.22404873,15.70723019,6.600195167
18.59691376,15.71383653,6.159799868
17.39790355,15.84187507,5.711156484
15.87866981,12.43338696,4.521608751
15.80645644,13.34983824,4.422262005
16.69791639,13.07487606,3.936002533
17.34365413,14.64397856,3.983672974
16.1740157,14.70887083,3.621592805
35.6421309,34.85806576,7.775769318
16.33662571,12.79335665,3.065177898
17.8241682,15.03957475,3.214962029
17.69277663,16.07313521,3.062964457
14.83923131,14.49759952,2.459818842
13.41197198,10.50303417,1.884304207
12.48442392,10.52732302,1.643531537
12.26002017,11.12950728,1.510993913
12.2665281,11.9724148,1.401699506
13.38090098,10.46928727,1.253320083
11.54633989,10.46547458,0.281532647
11.2046859,10.92229385,0.135733528
6.926689218,5.40720991,-0.316073497
6.774475871,6.129979661,-0.502315755
6.933132026,5.406399626,-0.637769113
7.405677462,6.693377341,-0.913902025
6.231396807,4.852374562,-0.864395928
5.03732441,4.550104707,-0.87306607
4.599772269,3.578093936,-0.855242145
3.839281065,3.464290002,-0.858591665
3.607414709,2.802113667,-0.843056111
3.098428181,2.792071906,-0.852130974
3.016363061,2.337439323,-0.852074254
2.636255282,2.375095872,-0.863818195
2.597465465,2.007825408,-0.864774699
2.228865549,2.007007342,-0.852058779
17.35371194,13.48520627,6.717460067
17.52945633,14.71992903,6.72651504
17.41331843,15.7822515,6.654136894
15.71100718,13.19293084,5.190478619
17.51847737,15.85363122,5.734743711
15.88824592,12.36244234,4.513514439
15.80764002,13.26796146,4.411184123
17.40063901,13.53921627,4.091836968
17.6955866,14.84837636,4.054026005
16.19052213,14.63338149,3.615218924
16.00861187,15.56064658,3.482044304
16.41405286,12.77294638,3.072338561
17.88616494,14.99818702,3.217829728
17.71550146,15.99485072,3.058388729
14.88150164,14.44992942,2.459465506
13.48884277,10.49663126,1.89057092
12.56013141,10.525399,1.649239397
12.25270029,11.05448486,1.505904869
12.2545553,11.88753654,1.396157229
13.43027846,10.44165215,1.254938588
12.42089923,10.4057705,1.03989258
11.95125948,11.58118432,0.752216567
11.56873649,10.42130227,0.281297835
11.16201442,10.81411194,0.134814067
6.864252026,6.178654852,-0.16862264
6.952721514,5.393283961,-0.316504856
6.794735508,6.110502546,-0.502425547
6.937859985,5.375939734,-0.63668389
7.415805802,6.661309086,-0.912625651
6.237606054,4.82654231,-0.863199185
5.063069071,4.545230149,-0.875107112
4.609945056,3.563360183,-0.855096947
3.84401595,3.447225826,-0.857281317
3.618329731,2.792835798,-0.843600599
3.110628817,2.785821006,-0.853131796
3.018880378,2.32460163,-0.850766708
2.62543295,2.350793447,-0.857904877
2.567568908,1.972161444,-0.852802866
2.239313449,2.00400868,-0.853698442
17.5600121,13.55931804,6.781182201
17.45961954,14.57018309,6.682532059
16.93333676,15.25286641,6.452810045
15.73428896,13.13038192,5.184837633
15.95466115,12.33572331,4.521608752
36.17316969,34.99827765,9.753598472
17.70111434,13.68603433,4.152601283
17.74257132,14.79527916,4.054371713
16.25442149,14.60078172,3.619468257
16.12378541,15.57667727,3.496684398
16.35377436,12.64567492,3.053779581
17.79475732,15.96758493,3.063599843
13.56029685,10.48559912,1.896068018
12.62218145,10.51164746,1.653144693
12.25096807,10.98492987,1.501542763
12.25796245,11.81806301,1.392408096
13.50486743,10.43332407,1.258911238
11.62970549,10.41177026,0.282002302
11.14183542,10.72849112,0.134172184
6.811095744,5.656940121,-0.400970456
6.457293582,6.201685098,-0.907999265
5.578947652,4.623718754,-0.86184389
4.566511898,4.382992283,-0.876613622
4.217070634,3.490927273,-0.855817049
3.524439906,3.38209023,-0.86103921
3.365939161,2.782791066,-0.848604317
2.859772478,2.744555663,-0.85090056
2.811222108,2.32062887,-0.849564703
2.433439845,2.333931598,-0.857073494
2.443695894,2.014015735,-0.866129389
2.085800132,2.001206404,-0.853701799
17.51882912,13.44192615,6.749320897
17.43924897,14.46265242,6.657721743
16.9807685,15.20148573,6.45308232
15.80807838,13.10989665,5.195874982
18.04217125,16.12729504,5.873672124
16.03885778,12.32238612,4.534735125
15.94898264,13.22064467,4.427905847
36.44879597,35.04908654,9.798876069
17.68064503,13.58374302,4.138002915
17.81518043,14.76340116,4.060594912
16.26896542,14.52390761,3.612767503
15.76738802,15.13912902,3.409305895
16.58076083,12.7401002,3.088851909
17.88706325,14.8129677,3.201578879
17.83700021,15.90697391,3.062455912
16.86262029,16.17376119,2.770431044
13.63653947,10.47785994,1.90222482
12.70496164,10.51474253,1.659753656
12.23033699,10.89892682,1.494908885
12.265377,11.75281809,1.38914796
13.58190369,10.42645788,1.263104664
12.44145546,10.29373587,1.036306167
11.68773728,10.39930378,0.282634499
11.22165685,10.73919717,0.134736
6.805643637,6.050721982,-0.166267721
6.999963865,5.36145926,-0.317151894
6.775365753,6.018300348,-0.49825334
6.979428988,5.339935362,-0.637479732
7.44834513,6.608411106,-0.911622743
6.235507713,4.764038534,-0.858847272
5.104220827,4.525922778,-0.877403322
4.634082409,3.536807768,-0.855532539
3.850326216,3.410492432,-0.854005505
3.648694636,2.780714908,-0.846686092
3.132800638,2.771226267,-0.854532983
3.027648591,2.301899693,-0.849241304
2.620884524,2.317904092,-0.851755049
2.59503142,1.968056939,-0.857897275
2.270306697,2.006794779,-0.860803437
17.34932653,13.2275054,6.668352516
17.54647153,14.46094803,6.681686626
17.03379741,15.15507366,6.455534218
18.53092741,14.1381025,6.149639552
15.85570671,13.06750158,5.198327359
18.09446887,16.07444823,5.874615308
17.15388576,16.41650455,5.520935124
16.07193284,12.26956861,4.533422866
36.5469254,34.92828077,9.79640319
16.86414105,12.87435207,3.93764476
16.29111474,13.41632038,3.703817006
16.35256022,14.50862843,3.621429251
15.52926538,14.8191984,3.347971286
16.5592247,12.64294651,3.077599506
17.91712656,14.745431,3.198847557
17.56949836,15.5719097,3.008311767
16.59086777,15.81567016,2.717798951
13.7081207,10.46613238,1.907721918
12.77635126,10.50794698,1.664860581
12.25374102,11.66976809,1.38376876
13.65585306,10.41679733,1.26700388
12.46681136,10.25044716,1.035793806
11.69936432,10.34551459,0.282146813
11.17847248,10.63235716,0.133825211
6.971979118,5.723932173,-0.080926236
6.839498353,5.609973137,-0.400608536
7.017266683,6.661858354,-0.624523159
6.454083547,6.122917363,-0.902248012
5.604908322,4.587513216,-0.861489541
4.545876435,4.309910041,-0.867559378
4.219288145,3.449352665,-0.851955741
3.540122633,3.355658468,-0.85982405
3.385231838,2.763948133,-0.849176522
2.870882284,2.721575494,-0.849221436
2.86088625,2.33225838,-0.860232503
2.455454104,2.326288412,-0.859783418
2.45600773,1.998983385,-0.866129389
2.14607069,2.03389058,-0.873245743
17.40964526,13.18923102,6.675952347
17.55512527,14.37786843,6.66815351
17.0693999,15.09318339,6.451447724
16.816089,16.03049116,6.339183794
18.63277368,14.12557825,6.169027749
15.96697383,13.0771513,5.221628483
18.30542458,16.16164368,5.926978705
17.13924071,16.30204271,5.500098772
16.06985273,12.19012725,4.522265355
17.16106066,14.04861942,4.740392497
36.8105107,34.96473687,9.838257094
17.44014382,13.22959056,4.062640708
16.43738589,13.45236197,3.727671262
16.41401366,14.47339835,3.625188157
15.57178912,14.76876565,3.347354736
16.62551927,12.61301055,3.082714062
17.70501842,15.5952973,3.023309487
16.70635191,15.82821322,2.728749277
13.79401103,10.46487797,1.915198009
12.8593749,10.510258,1.671469545
12.26559887,11.60950998,1.38107916
13.77278852,10.43931174,1.274875746
13.25861829,10.83348114,1.098813678
11.80089435,10.37095473,0.283826681
11.2037725,10.5911433,0.133738471
7.059723512,6.665531113,-0.270863963
6.838867839,5.574446561,-0.399567988
6.880165978,6.491685893,-0.610546108
6.454741217,6.086024754,-0.899725484
5.618185921,4.569669275,-0.861371464
4.559798806,4.296622381,-0.867696587
4.232918353,3.438883778,-0.852573544
3.552551258,3.346807793,-0.860344816
3.383785813,2.745508964,-0.846696908
2.897009081,2.72951688,-0.854468731
2.871811886,2.326535581,-0.861367377
2.45622908,2.312764597,-0.857566244
2.468878507,1.996898359,-0.868503798
2.121583356,1.998363725,-0.860782949
17.90234193,13.47624337,6.848997028
19.95354484,16.24018039,7.560210451
17.26957135,15.17602935,6.509475468
16.78745521,15.90517402,6.309964645
18.60419845,14.01424273,6.145302717
15.9949872,13.01831185,5.217704111
18.37683588,16.1246354,5.934054968
17.17430979,16.23533229,5.495342797
16.2357463,12.237678,4.558362882
17.13353156,13.93851066,4.720953278
36.94116624,34.87387839,9.844535132
16.92633066,12.75820597,3.933812659
16.40522184,13.34220903,3.711076852
16.48950431,14.45028182,3.632052229
15.61846426,14.72227827,3.347663011
16.73049217,12.61196604,3.094989518
18.05728108,15.80746662,3.075166005
16.83869993,15.85585391,2.742407801
13.89669094,10.47575802,1.924982946
12.92476904,10.49772979,1.675775384
12.19820849,10.67050056,1.478914693
12.25397256,11.52743657,1.37578138
13.82068385,10.40900776,1.276347146
13.34602242,10.83678693,1.103296782
11.95619711,10.45143418,0.868384449
11.19613076,10.51906189,0.133261395
6.83091293,5.961531133,-0.165537519
7.049812049,5.297406736,-0.317187836
6.786067456,5.916970635,-0.495014364
7.04184119,5.285650543,-0.638709673
7.505097064,6.536308324,-0.911166887
6.27034078,4.699888207,-0.857650529
5.1501487,4.482659989,-0.878168705
4.623669975,3.461984446,-0.847691607
3.873363437,3.367790583,-0.852203835
3.685947118,2.7558483,-0.849408535
3.147816629,2.733282108,-0.85173061
3.072176199,2.291441583,-0.855778922
2.691999574,2.336997034,-0.867839245
2.580449716,1.919846113,-0.847199017
2.293039961,1.98959702,-0.8624431
17.95202743,13.42755651,6.852212342
17.22908601,15.0470251,6.476783988
16.60931108,15.63997476,6.224940288
17.26689895,12.92403383,5.690444888
16.04842085,12.98015275,5.222119148
18.32221443,15.97748627,5.900561447
17.24107429,16.19857201,5.500778264
16.36927897,12.25975789,4.585272231
17.38914752,14.05802466,4.779479316
37.13174787,34.83897484,9.866792939
16.89456663,12.65317049,3.917389911
16.45910127,13.30234086,3.714015599
16.56946875,14.43072531,3.639896914
15.67221,14.68239794,3.349512422
16.84432582,12.61692003,3.108872393
18.04807172,15.70186304,3.065379399
16.88073983,15.79801201,2.741348031
13.99956558,10.48610675,1.934767764
12.99562693,10.48927465,1.680782175
12.21585639,10.6199598,1.477097228
12.22157244,11.42648519,1.368201576
13.91163965,10.41077478,1.281791196
11.99197462,10.41797763,0.868657439
11.26708617,10.52083398,0.133721126
6.872584987,5.96085449,-0.16610342
7.046011561,5.260806115,-0.316289177
6.776268363,5.871929213,-0.492983157
7.048430288,5.256866134,-0.637841472
7.51758539,6.506735225,-0.910255175
6.277555221,4.675285101,-0.856671344
5.146624237,4.451914475,-0.875234667
4.627919006,3.443058411,-0.84653003
3.884423874,3.356536473,-0.852367628
3.668334358,2.725174546,-0.843419103
3.157670781,2.724892118,-0.852130973
3.086248628,2.287235578,-0.857740213
2.675615385,2.308416629,-0.860270228
2.58555,1.911345476,-0.846944325
2.29621911,1.980039841,-0.861350009
18.03688934,13.40493341,6.868873986
17.50947946,14.07323487,6.601333843
16.97651789,14.73488098,6.364814517
16.71215664,15.64036235,6.245472418
16.8975876,12.56691042,5.556002563
16.14483959,12.97640593,5.240514571
18.07445971,15.66407732,5.805269357
17.24512807,16.10305679,5.486283369
16.31052912,12.13782711,4.558362881
17.40627541,13.98378533,4.772372536
18.20638015,13.54866417,4.211905996
16.58507575,13.32024334,3.733202811
16.9754459,14.6929614,3.719160124
15.76996979,14.68339877,3.360762204
16.89485949,12.57404236,3.111064414
18.15468336,15.69702084,3.075293082
16.88477302,15.70489275,2.734165434
14.08509305,10.48286742,1.942133945
13.0913911,10.50040315,1.688993311
12.23406324,10.5700618,1.475370483
12.22736608,11.36179824,1.364941441
14.02114174,10.42576819,1.288927421
13.38034344,10.72909758,1.100670959
11.29931103,10.48621769,0.133721126
6.86509143,5.917546671,-0.165482757
7.053289607,5.232614886,-0.31589376
6.785171896,5.843293813,-0.492324347
7.073339649,5.241749668,-0.638637314
7.484665098,6.438182563,-0.903873186
6.28867275,4.653638742,-0.856236112
5.135438539,4.414767382,-0.87102497
4.635278133,3.426491411,-0.845949185
3.89620014,3.345888623,-0.852695215
3.686172215,2.72091554,-0.845597057
3.182377547,2.72922362,-0.856534743
3.070460708,2.260974061,-0.851420511
2.704813095,2.319170228,-0.867366219
2.607768406,1.915425565,-0.852293425
2.300822173,1.971734049,-0.860803437
18.26948603,13.49098802,6.941657931
17.84044309,14.249375,6.709598291
17.0894026,14.74117534,6.390150783
16.56509664,15.40767286,6.17282008
16.82563873,12.43341111,5.519777242
18.44714937,15.88822782,5.909288522
17.32443728,16.07790079,5.495795319
16.38691984,12.11673677,4.569301525
17.1059529,13.65637305,4.678522399
18.13085614,13.4062301,4.18489937
17.37105116,13.8640418,3.900528784
16.99650971,14.62022507,3.713930176
16.04337833,14.84633826,3.409305894
16.49667908,12.19922965,3.030836324
16.66273717,13.28968444,2.938149001
18.18319584,15.62444197,3.071988363
16.91464418,15.63616466,2.731221917
14.15314939,10.46619929,1.947081368
13.14766472,10.47941468,1.692097521
12.26718949,10.53312705,1.475461439
12.2043226,11.27081278,1.35850259
14.0939695,10.4129266,1.292679415
11.3402497,10.45963801,0.133825211
7.206069874,5.733359608,-0.082612764
6.882933324,6.34067151,-0.261075718
6.88329946,5.471455019,-0.398210761
6.845513016,6.302003957,-0.600562451
6.511367735,5.990190746,-0.897303867
5.707292699,4.526915876,-0.866450137
4.607806177,4.236320617,-0.866873447
4.261634566,3.376250476,-0.849947898
3.590454137,3.300294537,-0.859650422
3.43415864,2.717178064,-0.850893195
2.934605124,2.697730888,-0.85572806
2.876455499,2.272403474,-0.854331167
2.495844689,2.292939897,-0.861507902
2.46820528,1.946738879,-0.859797648
2.170661397,1.994891645,-0.870696571
18.30847647,13.4331769,6.940781026
17.52410896,13.90886958,6.574549423
17.38802976,14.90597602,6.484684228
16.69658875,15.43470891,6.204144941
17.07491898,12.53681197,5.588911477
17.98279898,14.27293194,5.808568292
18.41755163,15.76457421,5.884286044
17.35721393,16.00948515,5.490586347
16.42008543,12.063517,4.568207662
17.26038724,13.69317079,4.709248355
18.66870796,13.71553712,4.299311678
17.63807052,13.98878711,3.950830337
17.02028871,14.55006172,3.709354209
16.11212366,14.81845134,3.414237108
16.49337056,12.11868828,3.02338336
16.67781143,13.21819623,2.93364265
17.74076021,15.14989888,2.98937394
14.2532751,10.47275301,1.956426541
13.20393181,10.45818008,1.695201731
12.31384086,10.5077241,1.477188066
12.14412215,11.14637814,1.347988688
13.41541081,10.62263436,1.098173167
11.39218814,10.44304141,0.134059412
6.90507827,5.878552658,-0.165574027
7.087682663,5.191009749,-0.316001614
6.791995829,5.776967784,-0.490238244
7.107784239,5.200016513,-0.638854394
7.495947548,6.368280641,-0.900499861
6.31710864,4.61496432,-0.856236111
5.103457285,4.333102133,-0.861074808
4.666605143,3.405567639,-0.847836805
3.913647566,3.319366639,-0.852040041
3.69723457,2.694192441,-0.844326584
3.192335477,2.703946386,-0.854733194
3.078749883,2.238074354,-0.849895048
2.652259506,2.246018623,-0.846078242
2.643741087,1.916986114,-0.860189731
2.284241416,1.933342484,-0.850145884
18.20432148,13.27103271,6.885827454
17.91774636,14.13191595,6.705933319
17.23446184,14.68283812,6.410582781
16.74883724,15.38798109,6.205987442
16.86645954,12.30429332,5.508297386
18.28150287,14.41881442,5.890734965
15.46504901,13.15537537,4.928063033
17.42132552,15.96998012,5.495342795
16.21348505,11.83531217,4.500606933
17.17022429,13.5360197,4.673296739
18.97355919,13.85007652,4.35971121
18.16671053,14.31748034,4.0593847
17.00244281,14.44475922,3.695789621
16.23554417,14.84027849,3.430726613
16.4505734,12.00969964,3.00876997
16.71906324,13.16758004,2.933779026
17.77808105,15.08769876,2.987848777
14.36641863,10.48816719,1.967530649
13.32352207,10.48654314,1.706416941
12.36576712,10.48664316,1.479550795
12.19887863,11.12787478,1.350270711
13.39852852,10.54254955,1.094138409
11.90067754,10.84444396,0.727743199
11.4707418,10.45046786,0.134605883
7.089355842,5.5698064,-0.080881383
6.8640406,6.245844372,-0.258900536
6.916742335,5.429116705,-0.398210761
6.866333042,6.243769316,-0.599016604
6.531801255,5.935405136,-0.89508407
5.734961902,4.491811271,-0.866450137
4.630046485,4.204638342,-0.866187517
4.277601631,3.346385405,-0.849021166
3.598241561,3.266947849,-0.856699277
3.45076635,2.696055368,-0.850893195
2.959065,2.686903703,-0.858036846
2.89879138,2.261300378,-0.856827887
2.496230037,2.26520775,-0.856827146
2.480103564,1.931557509,-0.859797646
2.180730567,1.979601295,-0.869846846
17.52756754,13.7371634,6.544100033
16.83799966,15.37490364,6.221518501
18.03618648,13.0730305,5.877183858
18.44621088,14.45714712,5.929487998
15.59958643,13.18754532,4.958018895
17.48319889,15.92826541,5.499419278
16.24813868,11.78436854,4.500169197
16.63738587,13.03339426,4.5173667
18.12851873,13.14816044,4.156250519
16.78359776,14.17041027,3.638752744
16.23053439,14.74455668,3.420093145
16.53939207,11.99692897,3.018268804
16.75080039,13.1095089,2.932276988
14.44438799,10.47730752,1.973797362
13.38933193,10.47197551,1.71072278
12.44204843,10.48587925,1.484821633
12.18201235,11.04420684,1.344647013
13.40250801,10.47926459,1.091832782
11.49830163,10.41120049,0.134553848
6.918059925,5.816769962,-0.165026379
7.155034014,5.173186381,-0.317583224
6.795204388,5.708210199,-0.487932528
7.17836762,5.184335819,-0.642327199
7.478429021,6.274799433,-0.893753152
6.338050326,4.570883486,-0.855256985
5.107148684,4.282587977,-0.857247773
4.675371777,3.368194849,-0.845658791
3.9384783,3.299091244,-0.853022801
3.716889483,2.673752804,-0.845052568
3.199097099,2.676135238,-0.852130973
3.090838664,2.218003385,-0.849459219
2.704747317,2.26211636,-0.858377959
2.612991739,1.870334607,-0.846434885
2.349938766,1.964326842,-0.870094669
20.63424987,14.84942519,7.770342263
17.29182781,13.46697204,6.440628276
16.86723037,15.30696508,6.214937673
18.05424026,13.00181316,5.870040839
18.50807,14.41418756,5.935129458
15.63997244,13.13962375,4.958018895
17.51682163,15.86082339,5.494663303
16.28738251,11.73674642,4.501044193
17.07624539,13.29285082,4.625430873
18.32830781,13.20744321,4.192745727
17.98838097,13.99886193,4.000267383
17.12929844,14.37250266,3.704124497
16.29109457,14.70859781,3.423329438
16.45332707,11.8576361,2.995910147
16.45859454,12.79959517,2.874237799
14.53129631,10.47245968,1.981273453
13.46696177,10.46626075,1.716530657
12.53294587,10.49689412,1.491819099
13.45823594,10.45646493,1.093754197
12.46501637,10.43259912,0.888860075
6.935358065,5.380324365,-0.078746315
6.844989448,6.152158291,-0.256753278
6.964137141,5.397589861,-0.399025109
6.854029929,6.156176263,-0.594636735
7.119058306,5.512294045,-0.739446752
6.564395418,5.891892398,-0.894579577
5.716856294,4.421303531,-0.859599834
4.656496158,4.176811245,-0.866324727
4.308218668,3.327927331,-0.851029067
3.624084965,3.250068179,-0.858088066
3.46024876,2.669434576,-0.849176521
2.970400915,2.664126883,-0.85656765
2.932672249,2.25892297,-0.862729224
2.534620022,2.27184255,-0.865203268
2.480439504,1.907483612,-0.855840317
2.178555231,1.953378563,-0.864181904
17.32244083,13.40563715,6.43668102
16.96354354,15.2997288,6.233100877
18.09797568,12.94917514,5.871316377
18.54453767,14.35140387,5.932676607
15.74212518,13.14327298,4.977596397
17.56322843,15.80505337,5.493983811
16.34314891,11.70092301,4.506513516
17.1084383,13.23381725,4.623131564
19.39146611,16.17809028,5.141636482
18.42630091,13.19236118,4.205884021
17.93462872,13.8688957,3.978833076
16.97782498,14.15687705,3.661959694
16.56264668,14.86179069,3.470794524
16.62234437,11.90213045,3.020022373
16.13564524,12.46918784,2.811145569
14.62235044,10.47007123,1.989299338
13.57696901,10.48510207,1.726444219
12.59647394,10.48451436,1.495544986
13.49736246,10.42061604,1.094330574
13.26540691,11.03345683,0.943516283
6.855931645,5.693091722,-0.162707967
7.178507091,5.123381039,-0.317223778
6.80166834,5.642819374,-0.485901291
7.252273396,5.170299224,-0.646089443
7.525991157,6.236419416,-0.894847195
6.387842351,4.54747349,-0.858194482
5.144024602,4.260026766,-0.859033707
4.699982046,3.342310901,-0.846384776
3.973089415,3.286810746,-0.856134821
3.731621752,2.649757528,-0.844689576
3.211680622,2.653335616,-0.851130093
3.096425957,2.19335537,-0.847280014
2.732060669,2.256615461,-0.86263552
2.651270922,1.873238712,-0.855095379
2.296667271,1.895979965,-0.846046815
19.11425437,13.57831825,7.166440399
17.70725721,13.61678787,6.564117656
17.01040209,15.24761258,6.233100876
18.16835216,12.91543974,5.881265584
17.91220034,13.77438742,5.716835792
15.82275932,13.12842372,4.990333196
17.62179942,15.76018667,5.497154304
16.39328213,11.660909,4.510451712
16.7954041,12.90951333,4.527818015
19.69899522,16.33241724,5.209867111
20.76530962,14.77082873,4.72940735
17.39759166,13.36851083,3.85057294
17.00750303,14.09339294,3.659018084
16.57792848,14.7839445,3.464475954
16.84740834,11.98526659,3.054217797
16.21310866,12.44979267,2.817973876
14.72567473,10.47586327,1.998974126
13.63038538,10.45975383,1.729147886
12.69303932,10.49913783,1.503178553
13.57915081,10.41742564,1.098365332
13.29534605,10.98952669,0.943243294
7.040479484,5.393002822,-0.079562668
6.763002852,6.00386144,-0.252291394
7.008231444,5.363256474,-0.399658468
6.888688498,6.11135546,-0.594379064
7.159081119,5.473351067,-0.740101568
6.596701461,5.848203168,-0.894075083
5.713887546,4.363241339,-0.855111665
4.683519819,4.149474731,-0.866599088
4.313631642,3.290045614,-0.848094492
3.640272742,3.224504966,-0.857220102
3.466411287,2.640419873,-0.846696907
2.982300515,2.641960756,-0.855308265
2.908493488,2.211997788,-0.851607474
2.543432531,2.251750471,-0.863478786
2.503620025,1.900977452,-0.859797647
2.185474112,1.935523411,-0.862199212
19.15191432,13.51685548,7.164978892
17.62087562,13.46453418,6.51675199
17.06430548,15.20177148,6.23573302
18.30108669,12.92545971,5.911368314
17.95283393,13.71819147,5.716345127
15.88845519,13.10083807,4.998352646
17.69481961,15.72805053,5.504854746
16.4728087,11.64153331,4.522484222
17.12869896,13.08229487,4.606828025
19.76716076,16.28685876,5.214655508
17.67826928,12.49344782,4.017569106
16.9970017,12.97795193,3.753081436
17.20145064,14.1653229,3.69137697
16.53817286,14.65764972,3.446753825
16.76292031,11.84787588,3.032297592
16.28430564,12.42523135,2.823709512
14.82592552,10.47882562,2.008209507
13.71779563,10.46011941,1.736157393
12.7905814,10.51389857,1.510902957
13.64596759,10.40233616,1.10118332
12.94475305,10.63305835,0.916051655
12.14347948,10.7294117,0.73243921
7.161227209,5.450715861,-0.080737848
6.792634294,5.993004541,-0.252709699
7.024652407,5.341730388,-0.399658468
6.910399827,6.092832447,-0.594636735
7.174252159,5.450155808,-0.739937893
6.610133556,5.823991025,-0.893469678
5.718545077,4.339088369,-0.853812462
4.692511126,4.131812933,-0.865913157
4.32842929,3.280376804,-0.849021166
3.642756294,3.206814274,-0.855484117
3.463537673,2.621478721,-0.844026559
2.986722643,2.629568127,-0.854258804
2.928474955,2.213046116,-0.85546604
2.563426104,2.255460634,-0.867913194
2.483260361,1.873535485,-0.850827685
2.192121896,1.929443181,-0.862482455
17.44203256,13.24331731,6.435553299
19.69148261,16.16011213,7.212620971
17.06102376,15.10522061,6.217569815
18.31137056,12.84870278,5.901929323
17.97476132,13.64780567,5.709967907
15.9992304,13.10992779,5.02052462
17.95249506,15.85876092,5.569854804
16.48928136,11.57748354,4.517233295
17.34480361,13.16328992,4.654066851
19.82082581,16.2292429,5.215653052
17.74789778,12.46118681,4.024685899
16.93551465,12.84894764,3.730782624
17.36545967,14.21120223,3.717198894
16.6942801,14.70480443,3.469869699
16.49882984,11.58547836,2.978081684
15.99396008,12.12623679,2.766899371
14.87183233,10.44300093,2.01007847
13.78313039,10.44322054,1.740363097
12.83588896,10.48531857,1.512447909
11.90835716,10.45678839,0.716319313
7.167548012,5.420878639,-0.080621224
6.791446905,5.955002233,-0.251984638
7.0378196,5.317745156,-0.399477508
6.932812212,6.074891151,-0.594958779
6.592790681,5.77287952,-0.888727354
5.723901336,4.315545647,-0.852631337
4.702183464,4.114788147,-0.865364437
4.318741976,3.252223301,-0.845159858
3.648871528,3.19238106,-0.854616154
3.47862476,2.616150673,-0.845743233
2.996247728,2.621680373,-0.8546786
2.922011181,2.194110067,-0.851607474
2.553553289,2.232912046,-0.862246997
2.477419812,1.857229552,-0.846870353
2.177097488,1.904397179,-0.854268339
17.64801534,13.31455598,6.496452079
19.73052986,16.09111127,7.208806753
17.15870856,15.09805473,6.236259447
18.56090191,12.93899604,5.969533387
18.03279972,13.60485697,5.715118701
16.06574857,13.08225804,5.0287801
17.85686763,15.67701513,5.525238103
17.35223839,12.10407652,4.743445316
16.42160997,12.38344786,4.396134666
19.88648343,16.18134395,5.219842543
17.85862125,12.45730412,4.041108648
17.01889945,12.83013363,3.740462658
17.40591555,14.15536925,3.71654515
16.86421286,14.76285293,3.495759809
16.39474418,11.43745102,2.952946404
16.12445303,12.14744781,2.783013844
15.00814288,10.47011765,2.024151126
13.89856755,10.46372179,1.750877356
12.90047041,10.47225002,1.516264633
13.28581428,10.7773698,0.935489862
11.9561882,10.43399817,0.717267504
6.802148599,5.92757091,-0.251705778
7.03652592,5.282932762,-0.3984822
6.903253265,6.011649824,-0.590836521
6.616474502,5.757850731,-0.889534579
5.740293201,4.300346036,-0.853103822
4.713290224,4.099042684,-0.865090018
4.332654454,3.241917928,-0.845932154
3.655675883,3.178586771,-0.85392176
3.485848241,2.604878491,-0.845552498
3.001325678,2.60990945,-0.853839068
2.926387246,2.183387896,-0.850926551
2.593310958,2.253675237,-0.873333042
2.493162238,1.857110798,-0.850300063
2.195234073,1.908405516,-0.859083499
19.2306868,13.30899239,7.14831725
17.74098307,13.29948317,6.51562427
19.78877372,16.03777251,7.212075948
17.01249981,14.87704926,6.166502464
19.46932988,13.48370064,6.248366776
16.92642767,12.68885268,5.352114017
16.33999331,13.2224101,5.101900218
17.92836693,15.64264917,5.532485552
17.23209756,11.94184756,4.700565736
17.56532913,13.16158144,4.691481403
16.7990278,13.58367648,4.398481479
17.89756278,12.40301578,4.041290801
17.03926276,12.76368824,3.736314175
17.44619322,14.09942176,3.715891408
16.87215363,14.67861891,3.48805436
16.42487978,11.38371809,2.952069739
16.10375158,12.05458591,2.773044611
15.11535036,10.47611319,2.034265797
14.02222651,10.4895721,1.762392973
13.0302013,10.51140652,1.527715043
12.09425499,10.50040006,1.309763395
13.21931174,10.65634629,0.92850086
11.98889694,10.39792322,0.717312684
6.906622467,5.5584216,-0.161868242
7.486477501,5.171707305,-0.327288677
6.850073103,5.50779085,-0.483266199
7.440730553,5.134351983,-0.655784378
7.553993611,6.066616978,-0.887006502
6.469124089,4.457414187,-0.859826457
5.178598026,4.156408332,-0.854058626
4.734397313,3.258604479,-0.843480777
3.999948663,3.206967471,-0.851221073
3.746704055,2.574938942,-0.839063194
