x,y,z
3.259306373,-10.78979201,2.184186716
2.426773944,-10.87623818,1.955709334
3.515806941,-11.67055997,1.901062097
4.465758532,-14.87839736,1.270315611
6.226665367,-23.87864117,1.349424868
4.427275065,-17.00733302,0.317496421
3.870684343,-14.89264827,-0.280946461
3.353803039,-11.23781712,-0.756950912
2.718779202,-9.12161724,-0.965310501
2.003648773,-6.730047998,-0.972506051
1.532075081,-5.148051977,-0.946795929
1.237632875,-4.157876213,-0.931289046
1.038806538,-3.493925342,-0.926545984
0.891537813,-2.996686493,-0.923380224
3.027831287,-11.63286653,3.403485298
3.517458108,-11.69805305,3.333059774
2.104273679,-11.61204438,3.113596381
2.570738546,-11.6696868,3.023241812
3.029236835,-11.67420117,2.927401182
3.488093239,-11.6475584,2.827166147
2.367929127,-10.76066776,2.355042268
3.222254414,-10.78657118,2.181523106
2.393394662,-10.88363222,1.955709334
3.474343546,-11.66235282,1.897979941
3.82887136,-14.84857164,1.399307327
6.150638852,-23.88699454,1.348824291
4.414155455,-17.1728672,0.32033235
4.465875998,-15.114923,-0.439690334
0.691974078,-3.856110776,-0.284192541
0.68338456,-3.82321187,-0.425071728
0.682246291,-3.828028625,-0.570645462
0.687304224,-3.872055531,-0.725808706
0.726323855,-4.119450186,-0.934012879
0.609351945,-3.48053379,-0.930747205
2.986619208,-11.62066688,3.397219416
3.483752173,-11.71618682,3.335165487
2.056774243,-11.55180984,3.095738594
2.533279179,-11.66993959,3.021279627
2.996300818,-11.69473656,2.930231687
3.444322175,-11.63112169,2.820598193
2.332832262,-10.75832486,2.352952053
3.186643382,-10.78793312,2.179811022
2.359367179,-10.88803594,1.955190774
3.431288627,-11.64831432,1.893973196
4.367085304,-14.88065309,1.268196546
3.281249866,-11.20242154,0.527621736
4.186666948,-14.29912993,0.129245249
3.746838817,-14.81650422,-0.840267236
0.672855237,-3.832144051,-0.425833326
0.671351903,-3.834976811,-0.571371448
0.67778624,-3.887708932,-0.728349653
0.712849613,-4.116850886,-0.932923247
0.59850713,-3.481433805,-0.930492513
2.955922921,-11.64936019,3.402940509
3.437178227,-11.69072372,3.324899424
2.024822084,-11.57806727,3.10109586
2.495639622,-11.66912463,3.01907211
2.946586431,-11.64923133,2.916550992
3.411085545,-11.65004662,2.82263667
2.299611086,-10.76447482,2.35274296
3.151329805,-10.79011941,2.178288958
2.326774558,-10.89907668,1.955882189
3.385589566,-11.62463552,1.888425316
4.318634061,-14.88440892,1.267381512
0.774298301,-3.65036382,0.102928915
3.76401851,-15.04985706,-0.283246604
0.672213541,-3.882887464,-0.285856584
0.799143751,-3.799500356,-0.461807526
0.798417737,-3.806933281,-0.608076482
0.812999383,-3.888620382,-0.771926635
0.820573861,-3.939607252,-0.937857719
0.685026769,-3.301828802,-0.922323633
2.91479234,-11.63690758,3.396674631
3.402103349,-11.70399254,3.325689065
1.988636801,-11.58041267,3.100075428
2.459627558,-11.67577734,3.018826777
2.904712538,-11.63370237,2.910418388
3.369910919,-11.64174453,2.818106956
2.264964221,-10.76382358,2.351070693
3.113853925,-10.78464521,2.175245067
2.294947308,-10.91387435,1.957265134
3.343348915,-11.61217995,1.884726728
3.678619377,-14.82905513,1.394218282
0.62279954,-3.635491849,0.137118843
0.612123747,-3.581059504,0.002472905
2.878873072,-11.68542132,-0.661684389
0.655467232,-3.872465153,-0.429858816
1.32362531,-5.405111148,-0.923944225
1.093260121,-4.477250441,-0.941607678
0.897336403,-3.676550796,-0.921295669
0.75665738,-3.103690509,-0.90753282
2.881848187,-11.6570033,3.399943824
3.354190253,-11.67265075,3.313843714
1.952295703,-11.58169225,3.098799889
2.423401435,-11.68136994,3.018336349
2.870634789,-11.64916439,2.912069438
3.33980597,-11.67169372,2.822863167
2.231137083,-10.76689207,2.350234797
3.076710789,-10.77998774,2.172391437
2.802532951,-11.40364088,1.945298716
3.317209384,-11.67899303,1.439555051
6.767236537,-23.91769529,1.123515894
4.04699192,-14.3091527,0.128993688
2.840886324,-11.68546658,-0.661190325
0.679345031,-4.102590711,-0.61028571
0.657813491,-3.989841685,-0.746317951
0.677766715,-4.140573874,-0.936845828
0.567059758,-3.490612845,-0.931511394
2.842878575,-11.65270343,3.396129606
3.324425953,-11.70423083,3.319898115
1.917069914,-11.58953446,3.099310103
2.38541797,-11.67830166,3.015638168
2.833045222,-11.65036173,2.91018259
3.302656609,-11.6771987,2.821730679
1.925031492,-11.61625839,2.639938752
2.616578928,-10.77738808,2.257994762
2.225183003,-10.91423984,1.954845069
3.266416624,-11.61250132,1.881490552
2.823039145,-11.70437276,0.658386557
0.869874787,-3.613156353,0.06714082
4.195372106,-15.04491985,-0.43573041
0.647240676,-3.954857213,-0.290704081
0.669134828,-4.119304546,-0.612463724
1.062369187,-4.469576244,-0.938605095
0.879252315,-3.700893768,-0.926026369
0.740708659,-3.121378191,-0.911358605
2.806664924,-11.65949993,3.39558482
3.283287314,-11.69579796,3.314633356
1.88134987,-11.59440732,3.099054996
2.346329471,-11.66940777,3.011468702
2.798876097,-11.66561374,2.911833641
3.260523007,-11.66476353,2.816295214
1.889384353,-11.62210988,2.639938753
2.581675806,-10.77774204,2.256398789
2.189362611,-10.90942643,1.952770825
3.229980707,-11.61961249,1.881028141
2.780182996,-11.68383704,0.656748502
0.857861521,-3.611917092,0.067068571
0.523715694,-3.251968659,-0.118478139
2.524646778,-9.186531685,-0.966218579
0.913872908,-3.886342559,-0.662861574
1.159704543,-4.225923606,-0.940734178
0.96635626,-3.525708959,-0.92925591
0.825459091,-3.009591038,-0.921680717
2.767101572,-11.65214141,3.390953539
3.237847497,-11.67142001,3.304893719
1.846073741,-11.60203478,3.099565213
2.307694475,-11.6622862,3.007789429
2.765535319,-11.68454827,2.914428114
3.215384746,-11.6409123,2.808141775
1.853104793,-11.62399735,2.639063756
2.547246022,-10.77988929,2.255201688
2.691565758,-11.40398758,1.941049502
3.204590379,-11.6908325,1.437317851
0.560596423,-3.532321437,0.132958096
4.041008049,-14.84275589,-0.429149133
2.493844161,-9.184632434,-0.965209591
0.889910646,-3.837234763,-0.654016901
0.913973509,-3.952902836,-0.828911032
0.858496527,-3.714739262,-0.92815515
0.720676901,-3.12211507,-0.910265514
2.730682081,-11.65776562,3.390136241
3.195393761,-11.65710845,3.298049676
1.811215536,-11.61242066,3.100840752
2.269125073,-11.65503722,3.00411039
2.72304721,-11.66458758,2.907352087
3.181707393,-11.65823918,2.809953754
1.816078244,-11.62095092,2.637094657
2.510825526,-10.77333847,2.252209294
2.118061441,-10.9004169,1.948795077
3.153447639,-11.62014124,1.877945985
0.70148372,-3.635533755,0.102129311
3.830846471,-14.24307976,-0.411468935
2.464881073,-9.189356852,-0.964906917
1.389872358,-5.19029,-0.947143126
1.140329783,-4.257515095,-0.946191341
0.942701161,-3.524081772,-0.927285023
0.805737086,-3.009967186,-0.92026451
2.691222109,-11.65015035,3.385504957
3.156589138,-11.65568234,3.294890868
1.774996289,-11.61409894,3.099820319
2.231716312,-11.6533743,3.001902872
2.683323641,-11.65584057,2.90310633
3.143643499,-11.65948177,2.807915277
1.781007896,-11.6303265,2.637969892
2.473591384,-10.76284651,2.248418679
2.620879488,-11.41740304,1.940559194
3.124840615,-11.68053709,1.433667782
0.820362455,-3.601137251,0.066725368
0.49256473,-3.248746721,-0.118190569
0.637295623,-4.23775753,-0.46902592
0.641942558,-4.303896169,-0.80312666
0.733114134,-3.941957418,-0.9344531
0.615896912,-3.326210613,-0.925225664
2.651834685,-11.64240383,3.38087344
3.122809783,-11.67276741,3.296996818
1.738640754,-11.61470855,3.09854478
2.195415505,-11.65730889,3.001167114
2.639592325,-11.6289541,2.894379019
3.108860605,-11.6728364,2.808821267
1.740686348,-11.60485619,2.630969205
2.436445288,-10.75222715,2.244628063
2.58540343,-11.42346574,1.940232323
3.086707327,-11.6814277,1.432608129
0.769217395,-3.425113585,0.063419806
0.484797014,-3.265070232,-0.11872976
2.405175721,-9.191796437,-0.963595199
0.614200274,-4.185861319,-0.620885444
0.715018784,-3.894849863,-0.769447023
0.722242881,-3.950894568,-0.936041924
0.605171225,-3.325237586,-0.924434175
2.613574091,-11.63921911,3.377604245
3.075153151,-11.63752283,3.284361588
1.700194849,-11.60085417,3.093442622
2.158052557,-11.65541025,2.998959597
2.605812662,-11.64553173,2.896501895
3.052963478,-11.60601982,2.790476151
1.992300519,-10.77385629,2.341873934
2.831806832,-10.79514085,2.162688992
1.998497773,-10.81581404,1.930299396
3.032865894,-11.59705349,1.869624223
0.665288268,-3.6270879,0.101715714
0.475496328,-3.271487178,-0.118909491
0.613124576,-4.254378872,-0.47044028
0.64264695,-4.497587301,-0.838518706
0.812224898,-3.722146863,-0.927445557
0.686406181,-3.14952129,-0.915730904
2.568288554,-11.60396842,3.365072487
3.038460783,-11.64316836,3.28330873
1.664870518,-11.60793048,3.093952839
2.121242512,-11.65625285,2.997488075
2.566095728,-11.63544119,2.892020342
3.017342293,-11.61533161,2.790476151
1.957488809,-10.77029614,2.339783717
2.791288707,-10.77526675,2.156981727
1.967417772,-10.83352412,1.93237364
2.990601868,-11.58047393,1.865463342
3.825024654,-14.87377631,1.255889499
0.742220074,-3.402416802,0.062914038
3.500607629,-13.70145432,-0.912759599
2.343811914,-9.187100346,-0.961577223
1.738110811,-6.82186506,-0.974975411
1.328991494,-5.218407254,-0.949226308
1.084860166,-4.258870689,-0.943462757
0.903685235,-3.552291629,-0.931719488
0.771105553,-3.02892223,-0.923096982
2.535341471,-11.62401405,3.368614193
3.001762799,-11.64869885,3.282255638
1.627235031,-11.59862021,3.09012622
2.078304639,-11.62262529,2.987186488
2.527497505,-11.62996397,2.888718242
2.977094937,-11.6066079,2.786173171
1.919794988,-10.7502588,2.334140112
2.755055073,-10.77141573,2.154508612
1.934863757,-10.84338777,1.933065054
2.975565353,-11.67001775,1.878408397
3.773488064,-14.86225586,1.253933393
0.604324091,-3.412585912,0.095594578
0.824920871,-3.853746613,-0.216682011
2.3097835,-9.171093909,-0.959155607
1.714757228,-6.817558932,-0.97360355
1.313695704,-5.225325135,-0.949747074
1.070119941,-4.255541639,-0.941993504
0.892782749,-3.555047408,-0.931719488
0.763211842,-3.036854428,-0.924796431
2.495018005,-11.61010161,3.362348314
2.965773255,-11.65691811,3.281992423
1.591906077,-11.60547415,3.090636437
2.04163074,-11.62321692,2.985714965
2.492212168,-11.63956472,2.889189838
2.946971658,-11.63740388,2.791382141
1.886297812,-10.75320828,2.333513071
2.717669503,-10.76268323,2.151084204
1.898866864,-10.83375016,1.930299397
2.933959818,-11.65609592,1.87470981
0.767594557,-3.61794297,0.202244474
3.706550065,-14.82818729,0.132584808
0.668981256,-3.872408845,-0.322740606
0.661785813,-3.843955006,-0.463933504
0.670117253,-3.905800223,-0.61950591
0.675107673,-3.949776087,-0.778602593
0.675175193,-3.968101061,-0.938084695
0.568668184,-3.358091557,-0.931557408
2.458589871,-11.61393648,3.361258504
2.929526319,-11.66409061,3.281465994
1.556164962,-11.60934445,3.090381327
2.003984093,-11.61796196,2.982771688
2.458095128,-11.65476297,2.89107692
2.90936523,-11.63883088,2.789570398
1.857116611,-10.7811101,2.338320543
2.683924928,-10.76811319,2.150513432
2.405203595,-11.43957463,1.936473534
2.901740835,-11.73008246,0.988150083
0.754550597,-3.61856353,0.066779556
0.443861152,-3.354872958,-0.245485046
0.782527786,-3.785118797,-0.497127179
0.789894094,-3.830865653,-0.649430741
0.804658707,-3.915600119,-0.816700543
0.776652392,-3.781325137,-0.939745274
0.647705026,-3.157707409,-0.915730904
2.422358233,-11.61859855,3.360441204
2.893263266,-11.67115094,3.280939566
1.519160052,-11.60351819,3.087575141
1.963637467,-11.59633566,2.975658708
2.425291815,-11.67652098,2.89461505
2.868511163,-11.62689728,2.784587689
1.852728555,-10.95646087,2.375108293
2.651579724,-10.77915591,2.151084204
2.862149028,-11.67291881,1.874555672
2.860776038,-11.71859662,0.986438476
0.698199257,-3.400495395,0.062715346
2.839582456,-11.71159918,-0.777819869
0.5251167,-4.086796936,-0.450965536
0.525367766,-4.105187369,-0.607381652
0.649066295,-5.100033774,-0.948869196
0.527346393,-4.182081054,-0.941204299
0.44179046,-3.537906542,-0.93915301
2.385540368,-11.62032082,3.358806608
2.85721392,-11.67903466,3.28067635
1.481960295,-11.59565623,3.084258739
1.925508482,-11.58700454,2.97173434
2.389652081,-11.68485928,2.894850848
2.83121415,-11.62901837,2.783002442
1.834954834,-11.05759997,2.395801356
2.616644675,-10.77960847,2.149562378
2.774276753,-11.46652764,1.840035761
2.818275442,-11.70018752,0.984156393
0.686376802,-3.395761297,0.062588902
0.932843552,-3.89963443,-0.25880095
0.509113616,-4.060770781,-0.447919201
0.51228047,-4.102852889,-0.606800864
0.63390116,-5.105904414,-0.94959518
0.514394387,-4.182710288,-0.940986382
0.429531689,-3.527725964,-0.936096362
2.349687893,-11.62664209,3.358534097
2.818426666,-11.67555477,3.277254329
1.44601944,-11.59726943,3.083493415
1.890418845,-11.59572781,2.9724701
2.349572791,-11.67117668,2.889661667
2.792110968,-11.62344368,2.779605216
1.795836679,-11.03132573,2.388903668
2.581045717,-10.7770831,2.147469541
2.79574762,-11.71236541,1.878100122
2.779601319,-11.69714253,0.983178341
0.550473925,-3.412572486,0.095346422
2.75417397,-11.65432587,-0.334083212
0.499451498,-4.102440972,-0.606510413
0.769528311,-3.927647784,-0.817701425
0.733414909,-3.745404855,-0.929101256
0.623229963,-3.187136339,-0.922562669
2.312505307,-11.62624605,3.35635471
2.78147579,-11.67945382,3.275938021
1.410315982,-11.6006912,3.083238306
1.85498789,-11.6024297,2.97271543
2.312432995,-11.67165748,2.888010618
2.753742435,-11.62058163,2.776887482
1.8070017,-11.31876307,2.449937872
2.544358462,-10.76966387,2.144425651
2.75504592,-11.70069054,1.874863947
2.71913773,-11.60081525,0.974375986
0.664183387,-3.393040443,0.062462459
0.678290281,-4.320354761,-0.359164528
0.654303361,-4.183294385,-0.503618246
0.742074619,-3.836396178,-0.648775566
0.760256247,-3.944420827,-0.820704007
0.721736932,-3.74668312,-0.928864743
0.614539309,-3.194701235,-0.924202333
2.276271181,-11.63045378,3.355537413
2.746292626,-11.69074994,3.2767279
1.374718904,-11.60496404,3.083238308
1.81563052,-11.58412283,2.966583546
2.271779651,-11.65389679,2.881878013
2.716082798,-11.62043889,2.774849004
1.812336889,-11.5802828,2.505328466
2.50707262,-10.75925335,2.140810989
0.360539126,-3.034495247,0.451410483
0.697842528,-3.615772225,0.201370834
0.396204172,-3.366766516,0.0023075
0.471144823,-4.060347402,-0.447375219
0.674608067,-4.418511518,-0.698739619
0.633423468,-4.16630638,-0.818848841
0.601147032,-3.974078816,-0.936722847
0.508339067,-3.378482145,-0.934459439
2.238759629,-11.62793372,3.352813003
2.707146783,-11.68502335,3.272779215
1.337890196,-11.5985609,3.080432121
1.783614624,-11.61263509,2.972470098
2.233270194,-11.64649626,2.878339883
2.679981542,-11.62681967,2.774396011
1.778579396,-11.59738862,2.507836633
2.47734973,-10.78124623,2.143664856
0.351568831,-3.038535159,0.451848875
0.685815135,-3.612991233,0.20109783
0.627557237,-4.163796946,-0.345822744
0.860543596,-3.814817226,-0.541607266
0.865350264,-3.837997589,-0.693518449
0.902552681,-4.002021186,-0.880705148
0.804629853,-3.573050235,-0.930980392
0.68613443,-3.044378457,-0.921680717
2.199852872,-11.61773123,3.347909448
2.662046263,-11.65283172,3.261460291
1.301437155,-11.59492382,3.078391258
1.741921289,-11.57778849,2.962168509
2.196808296,-11.64947306,2.87739646
2.643866528,-11.63308734,2.773943016
2.440574012,-10.77251879,2.140430708
2.628254407,-11.66990313,1.418360832
0.633841666,-3.403924241,0.062552774
0.857491655,-3.844331642,-0.254227814
0.448826545,-4.086877044,-0.449986351
0.723221982,-6.616297231,-0.976776552
0.556249297,-5.121871064,-0.950865655
0.449444588,-4.183315882,-0.93946092
0.375470755,-3.534861378,-0.936351056
2.165784833,-11.63293883,3.350361109
2.620560235,-11.63553304,3.254353033
1.266173019,-11.60174514,3.07915658
1.707240646,-11.58883309,2.963640267
2.159994982,-11.65042464,2.875981207
2.605822054,-11.63068841,2.771451778
2.405159017,-10.76941556,2.13833787
0.336148236,-3.070136756,0.456232916
0.651740875,-3.552311743,0.197494118
0.367462796,-3.391148322,0.002321794
0.355749643,-3.31219664,-0.241650471
0.702815555,-6.617500625,-0.976631354
0.540120303,-5.119641364,-0.950139668
0.437519745,-4.193411392,-0.941422212
0.364624202,-3.535996655,-0.936351056
2.127140836,-11.62343901,3.345729828
2.58505953,-11.64445982,3.254616248
1.230981273,-11.60942135,3.080177012
1.669188365,-11.57674482,2.959225233
2.123370748,-11.65221681,2.874801752
2.563196197,-11.60724228,2.763977834
2.36936405,-10.76428046,2.135864756
0.326308987,-3.067218772,0.455648402
0.323719396,-3.055550627,0.226665826
0.345091205,-3.29182045,-0.119053272
0.424151278,-4.093509083,-0.450421553
0.68451975,-3.855098136,-0.650085914
0.701027678,-3.963336889,-0.822305348
0.669931392,-3.789844025,-0.936906841
0.562954847,-3.189542411,-0.920103261
2.09112994,-11.62801581,3.345185039
2.543137073,-11.62406245,3.24671911
1.195556261,-11.61506759,3.08068723
1.631361587,-11.56549237,2.955055768
2.086413211,-11.65197996,2.873150702
2.526952383,-11.612196,2.763298577
2.334871858,-10.76478292,2.134532951
0.315372832,-3.053445071,0.453456353
0.759820324,-3.533158604,0.29553219
0.750667406,-3.50129892,0.031062229
0.812434318,-3.813417057,-0.395427185
0.812016347,-3.8173392,-0.540509766
0.814910115,-3.83291526,-0.690740932
0.849713009,-3.995581619,-0.876927109
0.759313314,-3.576018765,-0.929255909
0.64433756,-3.03193095,-0.915449347
2.052098044,-11.61542685,3.339736459
2.507666277,-11.63275253,3.246982323
1.15809112,-11.60040002,3.075840179
1.596931153,-11.57812605,2.957017953
2.048803841,-11.64779815,2.870555994
2.494990144,-11.63703613,2.767375059
2.300604072,-10.76613456,2.133391638
2.464633427,-11.60608167,1.406821849
0.597493214,-3.44296992,0.063130798
0.664900528,-3.863811066,-0.358941774
0.662427845,-3.856287527,-0.503250364
0.662517499,-3.868949235,-0.651723792
0.680484624,-3.98977719,-0.826909327
0.646011706,-3.790052264,-0.935960737
0.545310175,-3.204316203,-0.923382529
2.016781661,-11.62356353,3.340281245
2.470562842,-11.63378593,3.245139824
1.122496151,-11.60389845,3.075840179
1.561143468,-11.58104886,2.956527288
2.013059379,-11.65402895,2.870555994
2.458672763,-11.64177701,2.766695802
2.267361062,-10.77218154,2.13320138
0.29624893,-3.051384016,0.452871838
0.586591635,-3.44281541,0.06309467
0.553285999,-4.193416387,-0.347377919
0.623126706,-6.642373373,-0.979099762
0.477436088,-5.127842429,-0.950502661
0.386027208,-4.198464927,-0.941422213
0.321029868,-3.538278741,-0.935841614
1.981273108,-11.63064487,3.340553757
2.434464146,-11.63942214,3.244613395
1.086079247,-11.59862347,3.073544209
1.526491913,-11.59251223,2.958244141
1.978758063,-11.6687736,2.872678874
2.420961159,-11.63973003,2.76443083
2.228523133,-10.75120941,2.127684374
0.402782344,-3.075402995,0.427578204
0.287021197,-3.078513275,0.114940581
0.783196897,-3.842841033,-0.253132818
0.373705091,-4.09642586,-0.450203966
0.528062773,-4.136781985,-0.651940792
0.614103769,-4.835001771,-0.947026425
0.505145047,-4.00116208,-0.93990049
0.42119163,-3.357399465,-0.925489476
1.944946886,-11.6328724,3.339463946
2.395824424,-11.63266287,3.240664945
1.05101323,-11.60767881,3.075074856
1.490795785,-11.59617877,2.957999043
1.941513697,-11.66616178,2.870555995
2.380354237,-11.62324672,2.758768863
2.19199504,-10.74068138,2.124259968
0.276893557,-3.046247914,0.451848875
0.276182672,-3.053203974,0.226150841
0.29331158,-3.282791308,-0.11855003
0.504592544,-4.032906878,-0.483421569
0.515612985,-4.140343345,-0.652249664
0.600232938,-4.844656804,-0.948552306
0.493700389,-4.009458905,-0.941489309
0.415574443,-3.396973154,-0.936042417
1.908625539,-11.63498683,3.338374136
2.35878262,-11.63333978,3.238822209
1.013795964,-11.59254652,3.070227804
1.454970849,-11.59877473,2.957508381
1.903520923,-11.65863608,2.867253896
2.343336032,-11.62381168,2.757183618
2.158839419,-10.74639292,2.124069709
0.266767746,-3.038213939,0.450533669
0.266553905,-3.051056424,0.22593014
0.754770871,-3.823098607,-0.251522568
0.349489429,-4.109537235,-0.451400738
0.562632295,-6.655714119,-0.980261455
0.431041975,-5.141819049,-0.952317624
0.347530023,-4.203785111,-0.941858042
0.288764872,-3.544938891,-0.936860497
1.871851057,-11.63413763,3.336467262
2.319871171,-11.62443836,3.234347329
0.97855084,-11.5994569,3.071248238
1.41843774,-11.59548501,2.955546194
1.86712923,-11.66058267,2.866310472
2.307095102,-11.62808016,2.756504126
2.120909265,-10.72792541,2.119123242
0.258447451,-3.050846763,0.452287296
0.256857133,-3.047884839,0.225635857
0.684176842,-3.504708699,0.030975489
0.738885014,-3.811121086,-0.393711882
0.735779015,-3.801491655,-0.536257034
0.746652111,-3.859835568,-0.692997684
0.770265516,-3.98078744,-0.870420485
0.696854391,-3.607469719,-0.933936663
0.59497464,-3.07717547,-0.925646155
1.835099683,-11.63317341,3.334560155
2.282895706,-11.6248738,3.232504592
0.942333022,-11.59469472,3.069207375
1.382512407,-11.59689446,2.954810435
1.826825188,-11.63745566,2.859234211
2.271409718,-11.63510325,2.756504125
2.09360975,-10.76329226,2.124830742
0.697771215,-3.601676349,0.572198714
0.363654905,-3.076932982,0.311823403
0.542727473,-3.509705721,0.064160401
0.739538533,-3.870786483,-0.25435662
0.730543713,-3.830961181,-0.395528066
0.722816056,-3.796919636,-0.535296743
0.731493538,-3.844693567,-0.689872968
0.752199557,-3.952396157,-0.863703935
0.688858853,-3.62577717,-0.938124724
0.585531241,-3.078986349,-0.925646155
1.798665971,-11.63399391,3.333198068
2.245024526,-11.62045638,3.229345784
0.906153639,-11.58981851,3.06716651
1.346256312,-11.59530405,2.95333868
1.788896961,-11.62859792,2.855696079
2.235151917,-11.63914745,2.755824632
2.054490418,-10.73784466,2.118552704
0.240962199,-3.068154834,0.454625438
0.238849686,-3.058351765,0.22629799
0.487136797,-3.223860212,-0.05952998
0.637189654,-4.246502137,-0.393131029
0.623090001,-4.160948614,-0.54113764
0.650910402,-4.362324906,-0.732308912
0.649639244,-4.373677025,-0.903374875
0.563904222,-3.799206414,-0.935014631
0.476656661,-3.21719039,-0.923929045
1.76224439,-11.63470131,3.331835983
2.20648127,-11.61212546,3.225134121
0.870881964,-11.59640109,3.068186942
1.310676052,-11.59937887,2.953338677
1.750895628,-11.61865721,2.851922154
2.197264067,-11.63446497,2.753106899
2.01772549,-10.72383584,2.114557524
0.231696961,-3.07085264,0.45491771
0.230957638,-3.078960206,0.227769361
0.441939236,-4.012143885,-0.331498705
0.61449382,-4.19129963,-0.54483712
0.626401797,-4.288162872,-0.719533252
0.66328502,-4.561806216,-0.94180789
0.552664876,-3.803803006,-0.935724223
0.466370025,-3.21578174,-0.923109242
1.724282588,-11.62482427,3.327476976
2.164644033,-11.5856484,3.215920911
0.833633722,-11.57587208,3.062064352
1.273177393,-11.58599996,2.94892388
1.715809285,-11.627819,2.85286581
2.160492748,-11.6354048,2.751747912
1.986422753,-10.73866368,2.116269609
0.22177482,-3.064642136,0.453894774
0.657727538,-3.591076781,0.298547827
0.639142276,-3.502019883,0.030880073
0.612538896,-4.260189083,-0.394042771
0.603181716,-4.20396471,-0.546240334
0.605704812,-4.237330042,-0.710688521
0.650390477,-4.571579652,-0.94340923
0.540171826,-3.799708927,-0.934304979
0.459204749,-3.236245287,-0.928574631
1.687918749,-11.62529881,3.32611489
2.126475594,-11.57800204,3.21197246
0.798115544,-11.57837567,3.062064353
1.236699553,-11.5811759,2.946716363
1.679710819,-11.63014335,2.852158185
2.126709305,-11.6525184,2.754239149
1.950657907,-10.72925335,2.113225719
0.212713458,-3.070242613,0.454625438
0.644235448,-3.579344993,0.297406756
0.627159606,-3.497074456,0.030819354
0.223734184,-3.328723152,-0.242012212
0.276426615,-4.154948845,-0.455752623
0.439375212,-6.655070378,-0.978809368
0.337670941,-5.169489221,-0.956129101
0.272405423,-4.245506572,-0.949921179
0.222371584,-3.532281614,-0.932275528
1.650079649,-11.61518031,3.321755883
2.091972852,-11.59016864,3.213551748
0.762462753,-11.57883975,3.061554137
1.201663099,-11.58973708,2.947942788
1.642390653,-11.62369525,2.849327681
2.088542782,-11.64556642,2.751068421
1.91842238,-10.73905328,2.113986751
0.632060768,-3.553588799,0.562952306
0.312451622,-3.043548215,0.307918107
0.199439809,-3.047371111,0.113528904
0.449185236,-3.241479944,-0.059749039
0.213010086,-3.32143132,-0.241433421
0.264999974,-4.1766105,-0.458037386
0.418520627,-6.64947496,-0.977792989
0.321626304,-5.167556405,-0.955584613
0.25943864,-4.24729668,-0.950139095
0.211880425,-3.538738844,-0.93380385
1.611259292,-11.59731552,3.315217492
2.055731085,-11.59273213,3.21249889
0.726996375,-11.58208993,3.061809246
1.167070839,-11.60301458,2.9503954
1.605125755,-11.6171274,2.846497175
2.051790804,-11.64616412,2.749709673
1.886145135,-10.74875635,2.114747783
0.192624436,-3.051743891,0.451702753
0.192470383,-3.070613926,0.226960109
0.608417745,-3.516621977,0.03095814
0.664618077,-3.871214579,-0.398353295
0.659664017,-3.849610027,-0.540921336
0.664258444,-3.878861691,-0.693692077
0.685264469,-4.000264772,-0.871260016
0.621023377,-3.632110664,-0.936646588
0.527787172,-3.08357055,-0.923946706
2.020320921,-11.59993468,3.212762104
0.69094107,-11.5755787,3.059513274
1.131561879,-11.60750533,2.950640732
1.568827115,-11.61718226,2.845317956
2.014722682,-11.64472614,2.747897693
1.855326774,-10.7670696,2.117220899
0.612416117,-3.570059846,0.564955678
0.602247904,-3.521849409,0.423647883
0.597193418,-3.502593241,0.290560448
0.59389185,-3.494270997,0.160205548
0.592602517,-3.488896726,0.030697914
0.557239683,-3.292883914,-0.093169619
0.565345781,-3.34753235,-0.21912415
0.655383623,-3.88893241,-0.399967688
0.649000617,-3.858453204,-0.541881625
0.661986995,-3.938181668,-0.703934242
0.677203916,-4.02741736,-0.876717238
0.610358538,-3.636866292,-0.937385685
0.521820173,-3.10598273,-0.930178075
1.984560754,-11.60512727,3.212498889
0.656025607,-11.58826344,3.062319462
1.09375875,-11.58775886,2.944754179
1.53216197,-11.61423251,2.843430872
1.978009081,-11.64509004,2.746538942
1.859127143,-10.99050717,2.160025617
0.602444838,-3.577768024,0.565880325
0.590618283,-3.518783778,0.423059167
0.592695808,-3.541763165,0.293657594
0.579717138,-3.475383913,0.159257327
0.564631454,-3.387131501,0.029787125
0.550082389,-3.312327899,-0.09367158
0.554746712,-3.347282047,-0.218995329
0.645559618,-3.903685221,-0.401279378
0.670711716,-4.063709607,-0.570416158
0.65310717,-3.959627841,-0.707406212
0.670097326,-4.06131045,-0.883643655
0.598882946,-3.636809121,-0.936892935
0.512756697,-3.110407803,-0.931027856
1.949107068,-11.61211315,3.212762105
0.619746585,-11.57670428,3.058747952
1.058555464,-11.59492167,2.945735271
1.495777983,-11.61309609,2.842015622
1.942273228,-11.65110391,2.746538943
1.847264957,-11.12787318,2.185898801
0.589693769,-3.568876253,0.564185168
0.574171888,-3.48628485,0.418938073
0.575206224,-3.503241254,0.290315949
0.582766081,-3.560944869,0.16309539
0.552300466,-3.377005757,0.029683037
0.539274724,-3.310053582,-0.09356003
0.545916045,-3.357833257,-0.219575015
0.691091567,-4.260170491,-0.437704283
0.663781997,-4.099971533,-0.575217668
0.662819394,-4.096745113,-0.731536138
0.664819751,-4.107744764,-0.893298654
0.587258921,-3.635758857,-0.936153894
0.503211659,-3.111966273,-0.931027856
1.913158886,-11.61613446,3.212235676
0.583252344,-11.55923752,3.053645794
1.022296348,-11.59038903,2.943773086
1.458809448,-11.60702387,2.839421148
1.906361769,-11.65604721,2.746312447
1.841678056,-11.30887211,2.220332882
0.581745394,-3.589199763,0.567113187
0.564423611,-3.493911959,0.419644538
0.569209716,-3.534509187,0.292761051
0.559014914,-3.48282118,0.159437944
0.539561829,-3.363873995,0.029552923
0.527224585,-3.29984728,-0.093225394
0.535454642,-3.358506746,-0.219510612
0.67895607,-4.268165955,-0.438309687
0.65182157,-4.105901797,-0.575766389
0.673856552,-4.247575209,-0.758096386
0.664320662,-4.186050806,-0.909880072
0.577466288,-3.646158803,-0.93837107
0.494412848,-3.11823151,-0.932444063
1.876435111,-11.61528192,3.210392938
0.547740576,-11.56000638,3.053390685
0.986486115,-11.59057272,2.943037325
1.422010481,-11.60179891,2.837062237
1.869821225,-11.65703222,2.745179959
1.844287372,-11.54810663,2.266181726
0.570110813,-3.587064429,0.566496756
0.551682152,-3.48287657,0.41811386
0.554632571,-3.512611405,0.290804975
0.546618953,-3.473664557,0.158941244
0.527685659,-3.35563526,0.029466182
0.516015572,-3.29453639,-0.093030182
0.521141986,-3.334498866,-0.21783593
0.664785354,-4.263347808,-0.437603402
0.641506332,-4.12256371,-0.577824179
0.661275948,-4.252542193,-0.758617212
0.662295254,-4.25762861,-0.924992291
0.56493927,-3.639293828,-0.936153895
0.485285767,-3.122576669,-0.933293787
1.840640078,-11.62003166,3.210129725
0.512315181,-11.56259811,3.053645792
0.950842831,-11.59257834,2.942791993
1.385948873,-11.60224777,2.836118815
1.833897807,-11.66175126,2.74495346
1.811127326,-11.56825968,2.269035359
0.557734314,-3.58000999,0.565109814
0.542670078,-3.495346823,0.41940904
0.543548596,-3.512326703,0.290641957
0.534436715,-3.465452034,0.158489709
0.517083637,-3.355261918,0.029448833
0.498474739,-3.247689848,-0.091663731
0.511664738,-3.341014009,-0.218157988
0.64914798,-4.248647645,-0.435888098
0.632140097,-4.146055788,-0.580842261
0.654752996,-4.297388442,-0.766255428
0.658069037,-4.317634462,-0.9375858
0.552605578,-3.63334454,-0.934183008
0.475126066,-3.120258412,-0.932160822
1.802909534,-11.61227721,3.206444487
0.476759549,-11.56218332,3.053135577
0.91405227,-11.57997789,2.938867623
1.349897917,-11.60258451,2.835175393
1.798556582,-11.67021101,2.745632954
0.625273506,-4.075609595,0.799023051
0.543915479,-3.563146242,0.562181795
0.531197262,-3.492086411,0.418820324
0.533069167,-3.51594845,0.290804975
0.527831601,-3.493745174,0.159708862
0.506787422,-3.356832368,0.029448833
0.489846205,-3.258100445,-0.091914711
0.50111619,-3.340594471,-0.218029168
0.635079498,-4.243731661,-0.435181783
0.623952393,-4.178345466,-0.585094992
0.647961019,-4.342234158,-0.773893702
0.649583205,-4.351544381,-0.944512217
0.540884889,-3.631188414,-0.933197623
0.466541234,-3.128341312,-0.934143512
1.767275139,-11.61775444,3.206444489
0.441469394,-11.56842273,3.054411117
0.879620851,-11.59722786,2.942546661
1.313748652,-11.60184305,2.833995937
1.763180639,-11.67856341,2.746312446
0.608827565,-4.051296507,0.793886503
0.532835211,-3.563820991,0.562027658
0.521066478,-3.497628607,0.41929132
0.523158161,-3.523482606,0.291294001
0.513601655,-3.471630869,0.158625176
0.497363853,-3.364306742,0.029500877
0.47926583,-3.255632113,-0.091803168
0.490720022,-3.341128809,-0.217964751
0.622489597,-4.248613209,-0.435484485
0.618581517,-4.231206803,-0.592228597
0.637341021,-4.362716778,-0.777192045
0.636936754,-4.358354149,-0.945561677
0.530301418,-3.63666685,-0.934183008
0.457079995,-3.130706845,-0.93442681
1.731055392,-11.61930482,3.205391632
0.40617935,-11.57552085,3.055941765
0.843474111,-11.59213652,2.940584475
1.277084677,-11.5961591,2.83163726
1.72663069,-11.6790999,2.745179958
0.59596675,-4.050231554,0.793315731
0.525476626,-3.589879876,0.565880324
0.511909898,-3.510019809,0.420586499
0.507185033,-3.489563839,0.288359873
0.504666418,-3.485054247,0.159167012
0.487039982,-3.365816804,0.029500877
0.469417992,-3.2580766,-0.091831056
0.480467229,-3.342618454,-0.217964751
0.609169685,-4.248533703,-0.435282695
0.600968166,-4.20072602,-0.587701503
0.624928971,-4.371475825,-0.778407205
0.618994751,-4.328347732,-0.938635259
0.52064774,-3.648830944,-0.936892935
0.44706603,-3.129246145,-0.933577028
1.696235123,-11.63028839,3.206970917
0.370664227,-11.57671233,3.055941764
0.807905995,-11.5946702,2.940584477
1.240881715,-11.59422541,2.830222009
1.689536155,-11.67566664,2.743141718
0.585637067,-4.066616398,0.79616942
0.515581407,-3.599299717,0.567113187
0.500297097,-3.505675415,0.419880035
0.497178471,-3.496037194,0.28876739
0.494953004,-3.493509902,0.159483095
0.476711487,-3.367295122,0.029500877
0.457327433,-3.244654058,-0.09141275
0.472850055,-3.362852769,-0.219188553
0.598896242,-4.270087305,-0.437300698
0.588489479,-4.205492992,-0.588113073
0.713933647,-5.10584412,-0.908778239
0.610995055,-4.367989993,-0.946821004
0.509852707,-3.653290704,-0.937632031
0.436401733,-3.123004585,-0.931311098
1.66013701,-11.63257294,3.206181275
0.334670016,-11.56136464,3.051604931
0.771621585,-11.58645354,2.937886531
1.205003864,-11.59507782,2.829514382
1.653025108,-11.67597316,2.74200923
0.574664627,-4.079087305,0.798262079
0.502068625,-3.583251636,0.564339247
0.491735951,-3.522929794,0.421763959
0.483841758,-3.478789771,0.287218803
0.483684345,-3.49105382,0.159302478
0.46610427,-3.366760917,0.029483531
0.445733128,-3.234158787,-0.091078115
0.46361809,-3.372196566,-0.219703835
0.573898684,-4.185165514,-0.428421484
0.575181647,-4.20433474,-0.587701505
0.738681191,-5.403660314,-0.961378027
0.596134162,-4.359187921,-0.944512216
0.496414933,-3.63851287,-0.93344397
0.426558823,-3.122428239,-0.930744614
1.621506845,-11.6165912,3.200390089
0.299048612,-11.55653735,3.050074283
0.735641071,-11.5819938,2.936169678
1.168157698,-11.58615071,2.82644808
0.305967854,-3.045868721,0.62325286
0.303998456,-3.034251009,0.5051599
0.303651562,-3.046870926,0.392355341
0.300597702,-3.027472591,0.277625934
0.302696228,-3.059469271,0.168118446
0.341809491,-3.469635123,0.062986294
0.323388757,-3.295619493,-0.06046099
0.325052562,-3.32811359,-0.18385307
0.352011089,-3.625717339,-0.333504955
0.400643391,-4.139399754,-0.5348869
0.558627635,-5.803361547,-0.968003977
0.440979607,-4.613239967,-0.946812176
0.367664258,-3.850519921,-0.941637542
0.306923127,-3.223300604,-0.919829974
1.58638174,-11.62533482,3.201443182
0.263063119,-11.53420005,3.043951692
0.700163051,-11.58516388,2.936414774
1.132133856,-11.58484386,2.82526886
0.296336956,-3.04386716,0.622654368
0.294497397,-3.033205561,0.504833029
0.292681748,-3.031003946,0.390194642
0.291117425,-3.026397803,0.27744417
0.293594268,-3.063365313,0.168282254
0.321951011,-3.374121717,0.061234163
0.312803493,-3.29161942,-0.060369713
0.314558494,-3.326112924,-0.183688367
0.340326747,-3.620831473,-0.332957934
0.386739219,-4.12777172,-0.53322852
0.541278068,-5.809959176,-0.968822886
0.426373119,-4.609693475,-0.945811298
0.355312972,-3.84582465,-0.940218354
0.294297137,-3.19453274,-0.911358603
1.548158211,-11.6110209,3.196178422
0.2281143,-11.55718749,3.049819174
0.664394899,-11.58338575,2.935433681
1.096312088,-11.58536086,2.824561235
0.28616951,-3.035981851,0.620858781
0.283897749,-3.020343568,0.502545043
0.283935232,-3.037813158,0.390957225
0.282662036,-3.03620107,0.278262065
0.280598382,-3.025476326,0.166152789
0.287699484,-3.116236889,0.056537738
0.304534152,-3.312476367,-0.060734814
0.303534019,-3.318113381,-0.18319429
0.329036313,-3.619874953,-0.332775574
0.375057983,-4.13980431,-0.53463179
0.52345084,-5.811592409,-0.968822886
0.412577738,-4.614883064,-0.946611966
0.342389041,-3.834315548,-0.937143411
0.286883637,-3.222248782,-0.919010172
1.512155019,-11.61284641,3.19538878
0.192704631,-11.56073374,3.050584499
0.628854456,-11.58537027,2.935433683
1.060320577,-11.58383072,2.823381778
0.276587006,-3.033917955,0.620260289
0.274808735,-3.023165419,0.502871858
0.273989066,-3.031754884,0.390067536
0.273345759,-3.037053835,0.278262064
0.273633186,-3.052180389,0.167572423
0.275471793,-3.087228389,0.055995842
0.300829165,-3.386096512,-0.062067439
0.292385754,-3.308088207,-0.182590405
0.317493613,-3.615907414,-0.332319718
0.364776362,-4.168601028,-0.538203658
0.505533196,-5.812188002,-0.968659092
0.398838777,-4.621007678,-0.947612846
0.331541858,-3.845996404,-0.939745273
0.277573132,-3.229822668,-0.920923065
1.475790438,-11.61168826,3.193809257
0.15730163,-11.56610477,3.051860039
0.593159353,-11.5843397,2.93469792
1.024434452,-11.5831574,2.822438356
0.266761976,-3.028895471,0.619063249
0.266050293,-3.029890855,0.503852471
0.265462689,-3.0414744,0.391211438
0.264199392,-3.039862556,0.2784438
0.263062422,-3.039078537,0.166808008
0.265741603,-3.085070564,0.055941654
0.291635283,-3.400950029,-0.062323017
0.282744448,-3.314938989,-0.182919796
0.305810249,-3.609918532,-0.33168153
0.353570721,-4.188478472,-0.540627421
0.487534344,-5.811745954,-0.968331565
0.384416091,-4.619280638,-0.94701233
0.319177587,-3.840217327,-0.938089516
0.267821728,-3.232576368,-0.921469639
1.439803209,-11.61328949,3.193019615
0.12185732,-11.57040047,3.05288047
0.557569701,-11.58513677,2.934452589
0.988397171,-11.580436,2.821023103
0.257800085,-3.033605181,0.619861295
0.256836744,-3.031675977,0.504015908
0.256712826,-3.04919331,0.392101127
0.255204692,-3.044628186,0.278807327
0.252740748,-3.027930737,0.166152789
0.255944481,-3.081885847,0.055869402
0.2812823,-3.402825207,-0.062341271
0.272409433,-3.313800578,-0.182810004
0.294004605,-3.601906878,-0.330860983
0.342809285,-4.215246653,-0.543944125
0.469701845,-5.813214073,-0.968331564
0.370946866,-4.629227951,-0.948813881
0.308014522,-3.848926884,-0.939981786
0.25859141,-3.242012626,-0.923929044
1.403472823,-11.61190517,3.191440092
0.086214927,-11.55138211,3.047778313
0.522024401,-11.58679352,2.934452591
0.950235102,-11.55145273,2.813239214
0.247132275,-3.01777913,0.616469673
0.247534471,-3.032449684,0.504015908
0.246394674,-3.038102866,0.390575934
0.246503811,-3.053337946,0.279534326
0.243449995,-3.02869192,0.166152789
0.24513342,-3.065713254,0.055562327
0.270127482,-3.39470204,-0.062176971
0.261296516,-3.302675978,-0.182151223
0.282640836,-3.598820922,-0.330496293
0.32964339,-4.213312065,-0.543561461
0.452017815,-5.816594743,-0.968659092
0.355839697,-4.618621623,-0.946411812
0.297248236,-3.863416359,-0.943293241
0.249746963,-3.257177766,-0.928028117
1.365697786,-11.59795277,3.186438786
0.050766879,-11.54965809,3.047268096
0.486555457,-11.59027697,2.934943252
0.914714584,-11.55334508,2.813003418
0.239874204,-3.043921613,0.621656825
0.237302926,-3.021392542,0.502054737
0.23838423,-3.05565552,0.392736632
0.237135142,-3.054079728,0.279534325
0.233926105,-3.026437797,0.16598898
0.236646398,-3.078413842,0.055779086
0.260245157,-3.402493051,-0.062304755
0.250405855,-3.293505909,-0.181602249
0.271823273,-3.60265003,-0.330769817
0.317161538,-4.220237553,-0.544326844
0.434244038,-5.818937774,-0.968822885
0.343402654,-4.64314193,-0.951215947
0.286109675,-3.873999998,-0.945658591
0.239752904,-3.257928521,-0.928028116
1.327911701,-11.58291835,3.181174026
0.015330222,-11.54782576,3.04675788
0.450881619,-11.58880936,2.934207493
0.879928682,-11.5648175,2.815126295
0.231200317,-3.053437209,0.623452357
0.229071509,-3.03587881,0.504342721
0.228119139,-3.044503018,0.391211438
0.229393253,-3.07664131,0.281533585
0.224713924,-3.028137107,0.166043579
0.225067165,-3.050208694,0.055255255
0.251195884,-3.422221419,-0.062651602
0.241607902,-3.31218382,-0.182590405
0.260984837,-3.606446685,-0.331043314
0.303143124,-4.206351926,-0.542413356
0.416319357,-5.819258974,-0.968659093
0.328601942,-4.636354966,-0.949614549
0.274085906,-3.872921092,-0.945185509
0.23104204,-3.276880312,-0.933220276
1.293118164,-11.59364975,3.183016764
-0.020131738,-11.56715683,3.051860038
0.415151955,-11.58529367,2.932981068
0.842392311,-11.53935644,2.808286068
0.219204933,-3.017971275,0.616070679
0.218688321,-3.021807735,0.501891302
0.219772753,-3.05903937,0.392990816
0.220592146,-3.086270564,0.28235148
0.214997635,-3.022836184,0.165715976
0.216765933,-3.065844885,0.055526202
0.239853874,-3.411007562,-0.062432547
0.2305405,-3.299960752,-0.181876743
0.25033217,-3.613191118,-0.331590364
0.290578091,-4.212209708,-0.543051187
0.398396771,-5.819524342,-0.968495298
0.314111182,-4.633431285,-0.94881388
0.261480881,-3.86308024,-0.942583647
0.219369845,-3.253579725,-0.92638851
1.25743929,-11.59660338,3.182753549
-0.055637776,-11.57090814,3.05288047
0.378971909,-11.56713472,2.928075607
0.806782758,-11.53897838,2.807578442
0.21028483,-3.0235171,0.617068221
0.210098438,-3.032306369,0.503525601
0.209910423,-3.052772474,0.392101128
0.210578959,-3.078984469,0.281624482
0.206061612,-3.028462675,0.16598898
0.206751928,-3.057517602,0.055363631
0.229857432,-3.418710291,-0.062560332
0.220282224,-3.298659853,-0.181766937
0.238982748,-3.609967482,-0.331225674
0.277262522,-4.207143117,-0.542285744
0.380540859,-5.820719502,-0.968495299
0.299451657,-4.62752923,-0.947412694
0.249314669,-3.859016209,-0.941400972
0.208213425,-3.235998485,-0.921196352
1.220844917,-11.59081222,3.18012117
-0.091083248,-11.56391481,3.051094714
0.342245481,-11.52657438,2.917528921
0.771377864,-11.54139881,2.807578441
0.202502556,-3.046635993,0.621656824
0.203205819,-3.069359309,0.50957249
0.199438553,-3.036576127,0.389940458
0.200612567,-3.071665921,0.280897454
0.196510536,-3.02509504,0.165770574
0.196919857,-3.051153197,0.055237191
0.219111855,-3.41540831,-0.062487309
0.210351467,-3.302309692,-0.181931639
0.227216335,-3.599751239,-0.330222795
0.26354546,-4.19510561,-0.540627423
0.362926705,-5.825797984,-0.969150474
0.285313462,-4.629403861,-0.947612845
0.236221201,-3.83939745,-0.936433818
0.198461005,-3.239502432,-0.922016154
1.185769651,-11.59930177,3.181437242
-0.126412263,-11.55004494,3.047523204
0.306339045,-11.50721844,2.912378125
0.73578024,-11.54080128,2.806870814
0.192348811,-3.034529921,0.61906325
0.193353147,-3.063076293,0.508428499
0.191670768,-3.061922515,0.393117923
0.191435299,-3.076242763,0.281260954
0.188708826,-3.04960209,0.167081012
0.187128795,-3.044757299,0.055110747
0.208266799,-3.410076651,-0.062377778
0.199675382,-3.293969436,-0.181437561
0.215634248,-3.591484994,-0.329402248
0.25014147,-4.186983857,-0.539479318
0.345284952,-5.830823019,-0.969805647
0.271853775,-4.642972873,-0.950215067
0.224554366,-3.842044064,-0.936906842
0.189583038,-3.258341866,-0.927208313
1.151224648,-11.61344511,3.184332834
-0.161697677,-11.53896784,3.044717017
0.700016944,-11.53718484,2.805455563
0.183215063,-3.038039979,0.619661797
0.183600073,-3.057746433,0.507447886
0.181627768,-3.05160455,0.391719836
0.182702248,-3.088745089,0.282351479
0.176245466,-2.997336903,0.164187131
0.176970923,-3.031343052,0.054857863
0.19780385,-3.410699474,-0.062377778
0.189568683,-3.294566517,-0.181437561
0.204784609,-3.595112472,-0.329675745
0.236789806,-4.178819157,-0.538331213
0.327560489,-5.834809462,-0.970297027
0.257987931,-4.650632871,-0.951616254
0.212014059,-3.829132851,-0.933595386
0.178262478,-3.234896258,-0.920376548
1.114483109,-11.60539876,3.181174027
-0.197081458,-11.53745079,3.04446191
0.664506335,-11.53733773,2.804983733
0.171766131,-3.001412695,0.612080566
0.173432651,-3.044505806,0.5051599
0.172600083,-3.05808934,0.392482419
0.174005802,-3.103211241,0.283623741
0.168826649,-3.029766316,0.165934382
0.168498202,-3.046846334,0.055128811
0.187339031,-3.411290328,-0.062377778
0.1799489,-3.304105701,-0.181931639
0.193753999,-3.595723689,-0.329675745
0.22359674,-4.172593243,-0.537438218
0.3098671,-5.839727606,-0.970952202
0.243411199,-4.645531703,-0.950415277
0.200113237,-3.82685433,-0.932885792
0.168886921,-3.245994806,-0.923382528
1.078605134,-11.60588152,3.180384384
-0.232535373,-11.53969162,3.045227232
-0.059715621,-3.007723803,0.674478452
-0.060599982,-3.052266697,0.566587309
-0.063730545,-3.218436352,0.475522736
-0.062555777,-3.159109562,0.349507164
-0.063625158,-3.143812121,0.231962786
-0.062998267,-3.065235002,0.113974695
-0.063496741,-3.035335102,0.002066539
-0.072657224,-3.405022403,-0.122504091
-0.072614441,-3.321476727,-0.24099932
-0.092862919,-4.119348503,-0.450965535
-0.09438861,-4.095036362,-0.601137947
-0.123552473,-5.202640538,-0.96048501
-0.105973238,-4.255845407,-0.950574923
-0.092994633,-3.56223609,-0.938643569
1.04092186,-11.58607526,3.174066768
-0.267937563,-11.53892402,3.045227233
-0.068920544,-3.006550849,0.674259644
-0.069783655,-3.044202804,0.565127473
-0.075911475,-3.319104241,0.490428487
-0.071952048,-3.14598484,0.348077904
-0.072688981,-3.118676581,0.230123566
-0.072236782,-3.058033949,0.113714647
-0.072712792,-3.031127331,0.002063817
-0.082493726,-3.379807042,-0.121605446
-0.08414661,-3.375080145,-0.244906256
-0.106213132,-4.146868727,-0.454011868
-0.107184065,-4.10362919,-0.602444779
-0.139460633,-5.200270651,-0.960122017
-0.119275075,-4.264280604,-0.952536214
-0.104374203,-3.577399648,-0.942719038
1.002620011,-11.55749751,3.165380225
-0.303413441,-11.54094729,3.045992556
-0.078220255,-3.009251668,0.674916009
-0.079480488,-3.057734585,0.567682128
-0.085863104,-3.309955307,0.489113251
-0.081835426,-3.154691841,0.349067372
-0.083387368,-3.161307445,0.233287037
-0.08145838,-3.051804193,0.113491748
-0.081822475,-3.023892579,0.002059052
-0.093466333,-3.401515537,-0.122396251
-0.093160771,-3.326950571,-0.241433421
-0.118935051,-4.146523513,-0.454011869
-0.120495018,-4.128005771,-0.606074822
-0.155384804,-5.198835323,-0.95994052
-0.131902933,-4.249262036,-0.949267376
-0.115660694,-3.586727608,-0.945266241
0.968363767,-11.57493972,3.169328676
-0.338734025,-11.53706295,3.045227233
-0.087593882,-3.013874325,0.676009874
-0.088861111,-3.057476431,0.567682129
-0.09584537,-3.303743417,0.488236467
-0.090187634,-3.10872395,0.344010036
-0.098399045,-3.341468137,0.246602999
-0.089958666,-3.022572746,0.112414416
-0.090978799,-3.01962898,0.002056329
-0.103535426,-3.389226237,-0.121964907
-0.10327435,-3.323658448,-0.241216371
-0.132002888,-4.15706828,-0.455208641
-0.134371278,-4.165194456,-0.611592543
-0.171333872,-5.198334552,-0.959940522
-0.145304875,-4.259566805,-0.951664555
-0.126254491,-3.574759,-0.942209596
0.931918059,-11.5663165,3.166169867
-0.373970935,-11.53113721,3.043951693
-0.096965261,-3.01749247,0.676884931
-0.09814616,-3.054241339,0.567134719
-0.10617099,-3.309366352,0.489113253
-0.101381937,-3.160090655,0.349727045
-0.108812131,-3.346134135,0.246970848
-0.099624883,-3.034267973,0.112860207
-0.100342009,-3.022334098,0.002058371
-0.113932938,-3.388892655,-0.121964907
-0.113742977,-3.331300179,-0.241795162
-0.144790576,-4.157637108,-0.455317448
-0.146869786,-4.156852311,-0.610430908
-0.187245926,-5.196801387,-0.959759024
-0.158299825,-4.257150459,-0.951228668
-0.137517874,-3.582085303,-0.94424736
0.897099489,-11.57777807,3.168538797
-0.409483412,-11.53380067,3.044972124
-0.106325337,-3.020106344,0.677541296
-0.107412203,-3.050978072,0.566587309
-0.116184462,-3.305070325,0.488528709
-0.111600266,-3.174664815,0.351376187
-0.119148357,-3.347777915,0.247117982
-0.109399559,-3.046930683,0.113343154
-0.109758917,-3.026009322,0.002061094
-0.12498895,-3.406503389,-0.12261193
-0.123999818,-3.33193238,-0.241867522
-0.157582978,-4.158166807,-0.455426228
-0.157761655,-4.10793701,-0.603315962
-0.203457573,-5.203081155,-0.961029499
-0.171477603,-4.259570143,-0.951882469
-0.148667152,-3.58551125,-0.945266242
0.861718297,-11.58240029,3.169065462
-0.445239392,-11.54215225,3.047523204
-0.114955894,-3.003189867,0.673822145
-0.116621529,-3.046704104,0.565857391
-0.126966122,-3.321503567,0.49101303
-0.121757095,-3.1852328,0.352585536
-0.129303042,-3.344407015,0.246897267
-0.11804632,-3.028606586,0.112674464
-0.119474526,-3.036649925,0.002068582
-0.135201124,-3.400112504,-0.122396251
-0.134462354,-3.337515558,-0.242301622
-0.170868318,-4.170575923,-0.456840616
-0.277830496,-6.698428357,-0.983891498
-0.218466349,-5.179834647,-0.956855087
-0.18517872,-4.273649872,-0.955151307
-0.1595806,-3.583106128,-0.944756801
0.826111304,-11.58402647,3.168802246
-0.481010236,-11.54942659,3.049819175
-0.123765868,-2.993073511,0.671634357
-0.126252498,-3.053208521,0.567134718
-0.136625093,-3.308248892,0.489113252
-0.136409233,-3.303022122,0.365668695
-0.139604519,-3.344990978,0.246970848
-0.127295412,-3.027231884,0.112637316
-0.129171676,-3.045260851,0.002074708
-0.14516142,-3.388698834,-0.122000848
-0.144441837,-3.331108881,-0.241867522
-0.184449979,-4.187907877,-0.458798957
-0.298511764,-6.700509767,-0.984327089
-0.234623556,-5.185034292,-0.957944064
-0.198424935,-4.275986478,-0.955805052
-0.170112774,-3.572940415,-0.942209596
0.790765119,-11.58939431,3.16959189
-0.51652752,-11.54982822,3.05032939
-0.133467563,-3.00437758,0.674259645
-0.135488109,-3.049860245,0.566587309
-0.142783437,-3.2178796,0.475815008
-0.147819845,-3.331383944,0.368857037
-0.149821506,-3.343550743,0.246897267
-0.136942609,-3.034813354,0.112934512
-0.138650135,-3.047847159,0.00207675
-0.156061279,-3.399218937,-0.122396251
-0.154938436,-3.336627877,-0.242301623
-0.202116409,-4.289597065,-0.470005105
-0.319302588,-6.704503737,-0.985053074
-0.2506723,-5.187236496,-0.958488551
-0.210867311,-4.261710976,-0.952754131
-0.180779884,-3.566607213,-0.940681332
0.755205642,-11.59176612,3.169591891
-0.551867153,-11.54625819,3.049819176
-0.142637943,-3.00297913,0.674040893
-0.144471117,-3.041573324,0.565127473
-0.148763698,-3.135409795,0.463685792
-0.15733311,-3.316022392,0.367207895
-0.150634224,-3.145837874,0.232330636
