x,y,z
60.57105855,-7.813869276,0.041571071
19.37323146,-1.793363652,-0.881112543
6.669613917,-0.624445487,-0.796765632
4.079063449,-0.386860035,-0.796150679
2.96869491,-0.286153514,-0.815739323
63.40497366,-1.322090373,7.519573452
63.27111029,-5.968103053,6.395984625
63.38095147,-1.352577084,5.1842018
63.26560995,-5.976496592,4.078233863
63.39510686,-1.386088252,2.866135051
63.42581001,-3.699906215,1.147806438
63.45230242,-1.393986613,0.550550027
60.39047998,-5.749558774,-0.544226948
13.27189292,-0.304085606,-0.856851396
5.704946954,-0.134497456,-0.790324096
3.734843604,-0.088246779,-0.801995842
2.807298152,-0.066722953,-0.829342692
63.38771475,-1.516299166,7.518042805
63.21388013,-6.158425517,6.392079329
63.40938527,-1.54782324,5.186891162
63.22015595,-6.167947805,4.076504375
62.84193878,-1.573480853,0.545293493
19.34993302,-1.911023601,-0.880569664
6.677513927,-0.666541254,-0.79818297
4.100053192,-0.41424969,-0.800728494
2.965923684,-0.304265263,-0.815475512
63.32419641,-1.709182026,7.511095765
63.18676839,-6.351537616,6.391278242
63.376442,-1.741586704,5.184609495
63.24859785,-6.366673305,4.079578544
63.47553789,-1.784223579,0.550836308
19.36286114,-1.972302757,-0.881429222
6.694205445,-0.688956018,-0.800427026
4.114384857,-0.428453301,-0.803780313
2.976487019,-0.314579687,-0.818641354
63.30177902,-1.902942543,7.509094002
63.22042619,-6.550899758,6.396685575
63.36880683,-1.935953764,5.184446417
63.19700499,-6.55739142,4.077529098
63.58070747,-1.982414561,0.551799161
19.35671908,-2.031697835,-0.881429222
6.699959714,-0.710327845,-0.801371879
4.128667356,-0.442748726,-0.806832187
2.975507958,-0.32370994,-0.818641355
63.54834336,-2.176577982,0.551573617
60.43965402,-6.503583033,-0.54534829
13.40379269,-0.471737897,-0.865675625
5.715735671,-0.204957257,-0.792107526
3.78038003,-0.13575665,-0.812070637
2.816810662,-0.101547871,-0.832458405
63.21365691,-6.942491476,6.400190329
63.34043001,-2.357389848,2.864961078
63.26673177,-6.99078943,1.755719722
63.53037352,-2.371121132,0.55147819
60.41842176,-6.68886843,-0.54533929
13.40826607,-0.513086888,-0.866062102
5.714089974,-0.222453385,-0.791970316
3.776037622,-0.14720171,-0.811231045
2.815527382,-0.11015175,-0.832175161
63.30341344,-2.486333416,7.511684658
63.1594359,-7.132711191,6.396885848
63.33137578,-2.518429609,5.183060729
63.20933763,-7.147284997,4.082396651
63.29097881,-2.550015185,2.863064696
63.25194001,-7.185646202,1.755912722
63.53978699,-2.566704555,0.551625652
19.34315552,-2.210446873,-0.881700662
6.690178955,-0.771621235,-0.801017588
4.124417805,-0.480729224,-0.806832189
2.983897581,-0.352439783,-0.821807255
63.36791571,-2.683601145,7.520279649
63.22422721,-7.336540472,6.405697798
63.30741933,-2.712033093,5.181756579
63.17720152,-7.340023125,4.081756259
63.30182032,-2.744999492,2.863922527
63.40249159,-5.066718742,1.149088891
63.50663748,-2.760544241,0.55140881
19.34124385,-2.270362795,-0.881926921
6.693696709,-0.792843536,-0.801726228
4.111227118,-0.491980839,-0.804543252
2.989505001,-0.362405172,-0.823653985
63.32069454,-2.876241229,7.515687706
63.12831053,-7.52176373,6.398287748
63.30278192,-2.906427472,5.182082735
63.15240246,-7.533577283,4.08162799
63.29110639,-2.939101235,2.863832166
63.38565272,-5.26112823,1.14907089
63.48987731,-2.954994818,0.551339431
19.33517937,-2.329809673,-0.881972161
6.704047501,-0.814933546,-0.803261644
4.109698383,-0.504591577,-0.804543251
3.005608721,-0.373717465,-0.828402806
63.322486,-3.0710219,7.516982797
63.17702428,-5.390149603,5.786069826
63.01184553,-10.05853232,4.7071601
63.2484831,-5.418485174,3.471299081
63.17022725,-7.765911652,1.755554259
61.09753491,-3.031526969,0.530642791
19.33289666,-2.389730934,-0.88219836
6.695603717,-0.834760359,-0.802553004
4.105209388,-0.516829774,-0.803971048
2.985311565,-0.380497708,-0.823126365
63.33458235,-3.266403452,7.519573452
63.16192615,-7.9191201,6.406498885
63.3484544,-3.298159704,5.187380397
63.12380083,-7.923292498,4.082844878
63.27986035,-3.327812514,2.864193608
63.30478649,-7.979680925,1.759965957
63.35915084,-5.650578415,1.149197253
63.47255079,-3.344610952,0.551356776
60.45950973,-7.633892572,-0.546702866
13.43469192,-0.720622886,-0.868380842
5.732754605,-0.311312195,-0.795125549
3.782122033,-0.205583412,-0.813120095
2.801057461,-0.152648313,-0.828492967
63.27170986,-3.457823752,7.513333084
63.14029344,-8.113241174,6.406799292
63.27235666,-3.488872867,5.182001196
63.21797112,-8.132195128,4.090530539
63.27633371,-3.522325261,2.864509513
63.17564993,-10.50298872,2.380800617
63.44301944,-3.538268281,0.551191969
13.4643002,-0.763644801,-0.87044203
5.734739345,-0.329068813,-0.795537119
3.779521201,-0.217073711,-0.812700299
2.812065382,-0.161902619,-0.83189192
63.2974847,-3.654039919,7.517689469
63.13088823,-8.308992256,6.408401465
63.31110561,-3.685869631,5.186076247
63.09378573,-8.313071356,4.084125664
63.27619975,-3.717082227,2.865006377
63.42088619,-3.732245885,0.551096542
13.43898206,-0.803579155,-0.868960556
5.736669214,-0.346840532,-0.795948689
3.784693239,-0.229022448,-0.813959628
2.801982716,-0.169948535,-0.829059451
63.28399627,-3.848096094,7.517453912
63.11298908,-8.503698296,6.409202551
63.26666886,-3.878075692,5.183386885
63.14907942,-8.517539763,4.089377547
63.25652069,-3.91070035,2.864644935
62.98995613,-3.900842006,0.547453387
9.999205667,-1.365576249,-0.828828625
5.060184018,-0.697000188,-0.798515467
3.479338083,-0.484140461,-0.818696232
63.37594747,-4.04887838,7.529817345
63.10730217,-8.700140208,6.411305403
63.31812737,-4.076254702,5.188603006
63.19778271,-8.721606863,4.094245101
63.25519173,-4.105462016,2.865141799
19.369163,-2.696469591,-0.885636654
6.715445985,-0.942057641,-0.806568689
4.099714178,-0.580152224,-0.804543251
2.990581751,-0.427884632,-0.826292205
63.26018217,-4.236393477,7.51757169
63.26125235,-6.572288565,5.803881601
62.99078208,-11.24787482,4.720255004
63.24727504,-6.593153021,3.477305322
34.3901896,-4.879293259,-0.311612222
13.4827861,-0.930808169,-0.87230992
5.738174708,-0.399969113,-0.796634619
3.754139654,-0.261873076,-0.8078728
2.796473035,-0.195462615,-0.827926485
63.34694054,-4.437461335,7.529464009
63.12068228,-9.096989037,6.418214774
63.34362551,-4.468337676,5.192841136
63.08480529,-9.100810027,4.090466167
63.25870639,-4.495635556,2.866496255
63.56780278,-4.524293104,0.55281399
19.37301381,-2.818286,-0.886586693
6.712486777,-0.983677052,-0.806923038
4.105788243,-0.606731727,-0.806450659
2.964050459,-0.442664632,-0.819696656
63.25676703,-4.626209247,7.520397427
63.16430015,-6.954225451,5.798792318
63.05100861,-11.65828477,4.730039702
63.20761635,-6.981326456,3.477414517
63.30965525,-7.019440607,1.150768788
63.41899811,-4.709298045,0.551642997
19.36625238,-2.87800182,-0.886677173
6.701580753,-1.003090047,-0.805978185
4.106819609,-0.61976465,-0.807022923
2.989377624,-0.455827312,-0.827083695
63.28485435,-4.823501707,7.525460484
63.20105221,-7.1545871,5.804153876
62.9894625,-11.84687474,4.728127108
63.1402618,-7.170029197,3.474902778
34.40314616,-5.204579859,-0.312150452
13.49056057,-1.056185126,-0.873404857
5.757949423,-0.454636188,-0.799927059
3.751570445,-0.296414152,-0.8078728
2.782126842,-0.220208629,-0.824244289
63.23214014,-5.014650704,7.520986321
63.09919029,-9.68751593,6.424823737
63.33756792,-5.054160481,5.195938193
63.10588612,-9.697563242,4.097447063
63.22460792,-5.07846261,2.86694782
63.40086916,-5.099302979,0.551747067
13.49422013,-1.098135215,-0.873855767
5.766399792,-0.473109151,-0.80129892
3.752592433,-0.308082421,-0.808292539
2.788128768,-0.22929328,-0.826227034
63.2313034,-5.209843868,7.522752526
63.04950919,-9.877975704,6.42282102
63.23237286,-5.241044065,5.188603007
63.03837158,-9.885248391,4.095013286
63.2057436,-5.272160111,2.866812398
63.38492699,-5.293790153,0.551747067
19.38729345,-3.063762837,-0.888893989
6.7116781,-1.067847821,-0.808340376
4.111603256,-0.659246075,-0.809121066
3.000290601,-0.485788207,-0.831304839
63.22194984,-5.404402476,7.523576501
63.0444538,-10.0754452,6.425424551
63.23982722,-5.437062534,5.190558993
63.04125104,-10.08396014,4.097191001
63.19125997,-5.466219649,2.866902759
63.28721761,-7.804262334,1.152015122
61.99558077,-5.369330893,0.539794071
19.40147265,-3.127042913,-0.889979806
6.717192261,-1.089865321,-0.809403366
4.097935873,-0.669956635,-0.806832187
2.993075911,-0.49404812,-0.829721917
63.23375781,-5.600879997,7.526991132
63.04565209,-10.27409653,6.428729033
63.19902325,-5.628931687,5.188603007
63.1515392,-7.957424555,3.480636029
63.12132676,-12.6962185,2.393542898
63.1131947,-10.32807788,1.764019073
63.22230652,-7.993245536,1.151274593
62.218842,-5.581035941,0.541884525
19.40558817,-3.188818794,-0.890613165
6.724593219,-1.112250686,-0.810702568
4.103607511,-0.683816573,-0.808358067
2.982034039,-0.501628344,-0.827083697
63.18858703,-5.792313658,7.52369428
62.99420513,-10.46420792,6.426726317
63.20825425,-5.825266544,5.190803611
63.03824033,-10.48056796,4.101097728
63.12967362,-5.851361723,2.865683486
34.320252,-5.731849089,-0.312159423
13.49661863,-1.265230679,-0.874950704
5.779883345,-0.545698248,-0.804042641
3.795251911,-0.35852303,-0.81836739
2.791788531,-0.264122951,-0.828209724
63.17941695,-5.986989463,7.524754288
62.94610885,-10.65476587,6.425124144
63.1742089,-6.017647596,5.189499461
63.01563034,-10.6755849,4.10173812
63.33019817,-6.06596855,2.875617435
13.4956532,-1.306920431,-0.875143942
5.777196042,-0.563331995,-0.803905432
3.808730754,-0.37158907,-0.82151571
2.792874094,-0.272873324,-0.828776208
63.16569352,-6.181276777,7.525342706
63.08079137,-10.87674189,6.442247366
63.14156114,-6.210068837,5.188358389
63.02683522,-10.87650056,4.104620124
63.13831002,-6.243129968,2.867760589
13.46476956,-1.345638911,-0.873404858
5.771498427,-0.580656889,-0.803356712
3.802708809,-0.382782733,-0.820466251
2.799657539,-0.282209923,-0.831042197
63.26993337,-6.387505661,7.540061237
63.1415842,-8.722133155,5.816604094
62.93040142,-13.44268708,4.747034178
63.14309791,-8.744804614,3.485823064
23.56998194,-5.061935662,-0.867126276
7.960514089,-0.82303844,-0.811639773
4.556878286,-0.473065424,-0.807571458
3.230271579,-0.336200579,-0.825539895
63.15423061,-6.57161564,7.528639558
62.9394054,-11.25046228,6.434737181
63.24203749,-6.611994426,5.199850641
63.11399447,-8.93820388,3.485713868
61.32248867,-13.31623937,2.33280338
13.50389187,-1.433287522,-0.87649655
5.770781372,-0.616374854,-0.803768222
3.784733369,-0.404446253,-0.817108005
2.795012339,-0.299076882,-0.830192471
63.23349842,-6.776025677,7.540531876
63.13024542,-9.115660516,5.820602374
62.84576087,-13.82835334,4.746960745
63.06156937,-9.128216845,3.484348922
60.8714723,-13.41398806,2.317200554
63.27071539,-6.851507932,0.552050693
13.52125595,-1.477094405,-0.877913591
5.771817056,-0.63440113,-0.804179792
3.777643613,-0.415414532,-0.815848677
2.804567863,-0.308805055,-0.833308129
63.12258971,-6.960087314,7.529817345
63.12168658,-9.312205627,5.822420077
62.98085591,-11.66620286,4.110640194
63.25551422,-7.039562316,2.876791408
60.87684386,-13.61114234,2.318983924
63.30405649,-7.051675926,0.552527768
35.81414629,-5.325743647,-0.661091295
13.46905947,-1.513222217,-0.874821898
5.766890805,-0.651772088,-0.803768222
3.779265852,-0.427331778,-0.81647834
2.817901761,-0.319026218,-0.837556809
63.16803921,-7.161318581,7.537823918
63.0583539,-9.50062278,5.819239572
62.98301545,-11.86657711,4.113137867
63.21178449,-7.231096819,2.875797918
13.51689434,-1.560603664,-0.878235635
5.76486416,-0.669461609,-0.803768222
3.775994729,-0.43869873,-0.816058546
2.804525542,-0.326229362,-0.833874669
63.184239,-7.359562619,7.54241586
63.03678209,-9.695249512,5.819966273
62.99335889,-12.06876361,4.116212036
63.12977186,-7.417998534,2.873088767
19.37195065,-3.735271249,-0.89346334
6.707895223,-1.300693654,-0.81271041
4.087018549,-0.797601056,-0.809121067
2.966101813,-0.583579385,-0.826819885
63.0943153,-7.545356126,7.534409288
62.9430375,-12.25031462,6.453562712
63.18067463,-7.58700323,5.203762614
63.09276196,-9.924665846,3.492539077
29.0842682,-3.529128052,-0.817332608
10.04153501,-1.973079813,-0.84045159
5.074953879,-1.003260042,-0.808709293
3.449999104,-0.686969343,-0.819831104
63.04425658,-7.73562587,7.531230214
63.07640632,-10.09791133,5.829235986
62.97979395,-12.46726467,4.120247031
63.21591864,-7.82165342,2.879139354
63.25840739,-7.833636511,0.552926762
19.3800182,-3.860309773,-0.894911018
6.705630069,-1.342998166,-0.81341905
4.061839462,-0.818590869,-0.805115515
2.984206375,-0.606184307,-0.832887759
63.11776874,-7.941279027,7.542886975
63.09034207,-10.29875954,5.833415941
63.00777689,-12.6738074,4.124601985
63.13216308,-8.008018244,2.876430204
56.56487803,-13.56133111,2.162398707
63.13123033,-12.7330367,1.776426852
60.6171797,-7.69545408,0.5300443
19.38374983,-3.922919328,-0.895634916
6.697586131,-1.362772418,-0.812946624
4.063155813,-0.831836133,-0.805878456
2.965328493,-0.611828455,-0.828138996
63.01923945,-8.125360246,7.534055951
62.98477237,-10.48000996,5.826600507
63.04601969,-10.51281885,3.495160012
55.89376706,-13.58190305,2.138325822
19.38140793,-3.98438094,-0.896087315
6.684621654,-1.381505177,-0.811883635
4.084611785,-0.849293638,-0.810646948
2.966269535,-0.621516515,-0.828930426
63.03635028,-8.324252684,7.539119008
63.00141552,-10.68151857,5.831144289
62.92687175,-13.05977216,4.124474192
63.14224175,-8.403278034,2.879184653
13.49478033,-1.810335322,-0.87881535
5.779051517,-0.779166339,-0.807609443
3.760497329,-0.507213257,-0.814589292
2.813252329,-0.379849476,-0.838406589
63.06267118,-8.524656879,7.545359376
62.98797734,-10.87814364,5.832961516
63.05116707,-10.91172361,3.499091296
29.19705628,-3.998168997,-0.822129172
10.05298264,-2.135990864,-0.844053022
5.067663247,-1.082845814,-0.810099334
3.453337478,-0.742881079,-0.823235721
63.0027775,-8.713464583,7.541356328
62.99942383,-11.07927125,5.837141947
63.04689355,-11.11030946,3.50072947
29.23811022,-4.095212703,-0.823635024
10.06391907,-2.170605168,-0.845526389
5.037281891,-1.092524459,-0.805774718
3.420594539,-0.746824602,-0.815972538
62.89007179,-13.64787683,6.476694083
63.10284837,-8.956145743,5.21199473
63.05379086,-11.3110871,3.50302258
52.23778689,-13.37448893,2.004587543
61.52491372,-13.39435408,1.736804784
34.41458778,-8.824640594,0.02418314
11.53367695,-2.96907092,-0.863936612
5.398554891,-1.396563271,-0.818360758
3.569864162,-0.930545317,-0.823744406
62.87510916,-13.8467484,6.479497885
63.15299287,-9.161003505,5.218433462
63.09467066,-9.186277298,2.881938865
34.39703309,-8.932695479,0.024189948
11.53319982,-3.006706102,-0.864587792
5.380845427,-1.409609025,-0.816327883
3.570767045,-0.942489452,-0.824616122
63.07414619,-9.315737479,7.559842351
63.11177294,-9.352812342,5.21737393
63.14029652,-9.390828116,2.885325362
29.24267958,-4.370641331,-0.824862045
8.910600564,-1.671849568,-0.830024343
4.791878034,-0.90314498,-0.809618222
3.303173268,-0.625189782,-0.818403868
63.11596933,-9.519865802,7.568320039
63.09855047,-9.548778455,5.218677604
63.10526582,-9.583595545,2.885054519
50.03705491,-13.3029321,1.924753201
34.31999343,-7.810757355,-0.315765712
11.5492222,-3.086686776,-0.867192396
5.379738986,-1.444651476,-0.817489516
3.540422245,-0.957755186,-0.818950165
62.99911389,-9.700008469,7.557840589
63.07782206,-9.743686199,5.219411455
63.04298813,-9.772105028,2.883564403
34.25494502,-7.906566974,-0.315388951
11.54354973,-3.123146679,-0.867481778
5.374326912,-1.460890014,-0.817344319
3.558176254,-0.974283032,-0.823744407
62.98573351,-9.895861228,7.55984235
63.07913637,-9.942125614,5.222019278
63.04231157,-9.970153378,2.884919097
29.24169204,-4.646029876,-0.826005382
8.902652033,-1.755330856,-0.830753725
4.787233598,-0.947976471,-0.810273338
3.287749429,-0.653670197,-0.816038574
63.01096687,-10.09800941,7.566553833
63.06213038,-12.51487806,3.515690236
34.34394566,-8.149386127,-0.316662822
10.09254652,-2.404697918,-0.852074496
5.046288239,-1.208497089,-0.811180501
3.399981267,-0.819193999,-0.815064641
62.99537292,-10.29383876,7.568437817
63.04546849,-10.33366071,5.22438296
63.04204981,-10.36699842,2.887763669
29.03313711,-4.795716404,-0.820930046
7.999101433,-1.32689191,-0.822335171
4.558153102,-0.758068987,-0.814515282
3.199752323,-0.533013489,-0.82455445
62.91060081,-10.47824714,7.562079671
63.05574006,-10.53409398,5.227887713
63.12128007,-10.57901878,2.892866065
55.81648922,-13.59446723,1.584603489
29.16417705,-4.909324486,-0.825057251
8.008726191,-1.353747981,-0.823747741
4.554834967,-0.77188507,-0.814341713
3.198102041,-0.542827679,-0.824554451
62.94179307,-10.68200485,7.569732907
62.99168364,-10.72214497,5.225279414
63.07277277,-10.76993264,2.892143657
29.31055538,-5.026484764,-0.829630715
8.021203819,-1.381182096,-0.825463044
4.564090967,-0.787865749,-0.816424894
3.210746779,-0.555113485,-0.828249819
62.94884731,-10.88199292,7.574560407
63.14998731,-10.94855106,5.241172873
63.10045399,-10.97399887,2.894943168
29.2753021,-5.112945072,-0.829072935
8.001249322,-1.403034949,-0.823848652
4.550012881,-0.799818462,-0.814341712
3.211892268,-0.565465416,-0.828988917
63.07457816,-11.10312895,7.593753101
62.86567257,-13.48135701,3.51585403
63.08051394,-13.55507009,1.165634783
10.08731204,-2.567585207,-0.854857437
5.050129579,-1.291636492,-0.814887373
3.398333704,-0.874162091,-0.817788334
62.91531017,-13.67103327,5.875218824
62.88158153,-13.68669171,3.519075542
63.02690798,-13.745978,1.16541806
10.08903757,-2.601008736,-0.855675928
5.038491741,-1.305141991,-0.81365171
3.417312084,-0.89023071,-0.823008747
63.04531661,-11.49724215,7.598580601
63.12497912,-11.5436472,5.247693144
62.97418212,-11.55015012,2.893904617
51.65695542,-13.42401334,1.472189606
62.74429187,-13.88612881,1.160974415
8.023216525,-1.483127547,-0.827481077
4.54149064,-0.841482423,-0.814168143
3.228468676,-0.599069843,-0.834655111
63.05466137,-11.69894114,7.603996994
63.06084952,-11.73197121,5.245329463
61.04686315,-13.70706319,1.130339297
29.32236174,-5.492794898,-0.832252068
8.015695841,-1.507183908,-0.827178347
4.54082335,-0.855776324,-0.814515283
3.224710751,-0.608612359,-0.834162361
63.01847529,-11.89233578,7.603996995
62.98456652,-11.95197912,2.897697617
50.65501899,-13.49598145,1.445967973
56.12724494,-12.78344622,1.039969238
35.96363063,-8.20554271,-0.673504738
10.03963973,-2.687055977,-0.853547803
5.044394526,-1.356334009,-0.816586345
3.413674713,-0.922916003,-0.82414362
42.62611867,-13.13834838,6.589073162
42.66410692,-13.15005806,4.938286345
63.05521029,-12.13167699,5.25095328
62.86226599,-12.12869167,2.893769195
59.22171579,-13.67948689,1.098078521
29.31460315,-5.677742218,-0.833004993
7.998484236,-1.554820216,-0.82637118
4.536453509,-0.883810516,-0.81468891
3.218062009,-0.627830602,-0.833423322
62.97940574,-12.28563087,7.6082356
48.87047253,-13.3147148,3.250649119
58.95459286,-13.80844185,1.093905957
34.38728855,-8.068176326,-0.644898979
10.05468159,-2.757305643,-0.856248907
5.064552732,-1.395132056,-0.82121989
3.419210398,-0.946963784,-0.826867314
62.93852692,-12.51018747,5.247530066
63.10017106,-12.57666483,2.908218315
29.25863043,-5.853388475,-0.832419378
7.985867228,-1.603281214,-0.826068449
4.513566863,-0.908132464,-0.811564139
3.195147523,-0.643736055,-0.828496167
62.95345662,-12.68203124,7.614358189
63.01820748,-12.76147012,2.906231572
29.33947278,-5.963234263,-0.835235936
7.983835159,-1.628370432,-0.82637118
4.505935038,-0.920989551,-0.810696174
3.184611876,-0.651786664,-0.82627899
62.97554692,-12.88765333,7.621776345
62.96309588,-12.91716717,5.256087863
55.85884778,-13.60207313,3.143798499
62.87406189,-12.9332113,2.901400258
29.32495481,-6.054026397,-0.835347456
7.998285865,-1.656893156,-0.828389155
4.50405237,-0.935009386,-0.810869801
3.171210583,-0.659186908,-0.82332272
62.94251621,-13.08221308,7.622600796
63.03063791,-13.16710468,2.910476138
53.38114814,-13.19607014,0.993420454
29.53223997,-6.191345247,-0.841789288
7.999006944,-1.682652541,-0.82899456
4.529108071,-0.954714,-0.815904069
3.154000702,-0.665710466,-0.819381005
62.89431201,-13.27361646,7.621658567
62.99678561,-13.36186908,2.910792281
51.39289407,-12.87199903,0.957149597
10.07245208,-2.929022752,-0.861487381
5.012208108,-1.463791011,-0.816277413
3.386527278,-0.994088521,-0.822554797
62.98146609,-13.49397177,7.637201073
29.28753367,-6.327891781,-0.835905177
8.016728631,-1.737814258,-0.831920671
4.528939169,-0.983740366,-0.816945661
3.156485952,-0.686492314,-0.821105488
62.93033352,-13.7172922,5.267009341
60.88461342,-13.30477211,2.816917588
29.49255705,-6.466958643,-0.842319173
8.002614658,-1.760477227,-0.831012594
4.517244341,-0.99572246,-0.815383304
3.160043245,-0.697426282,-0.822583622
62.88875335,-13.8782391,7.636141065
62.82469611,-13.89630378,5.26171168
51.64554891,-13.41852298,2.917911439
60.8991013,-13.50382799,2.819491317
29.17790178,-6.491846676,-0.833897335
8.000088247,-1.785670829,-0.831315266
4.52089549,-1.011080982,-0.816598463
3.182478425,-0.712624008,-0.828988915
51.50293498,-13.53105904,4.859317258
13.49858323,-3.051523071,-0.89324325
5.780666003,-1.310822089,-0.820916419
3.713904874,-0.842368414,-0.8175278
2.751539308,-0.624493718,-0.833308127
55.88303439,-12.75796595,0.497229887
29.45907206,-6.744373391,-0.843099994
7.984133316,-1.833611359,-0.830810773
4.53476123,-1.043439141,-0.820244003
3.208268099,-0.739100338,-0.836872286
42.61392534,-13.16340634,4.488694644
59.4174572,-13.75023796,2.756637265
59.09548262,-13.68224682,0.526184304
29.47329551,-6.842859308,-0.844103915
7.996880295,-1.862385271,-0.832727896
4.542088095,-1.059808284,-0.822153557
3.167291038,-0.73990034,-0.826771684
15.43680186,-4.220615118,0.289119186
29.43075573,-6.928210588,-0.843490404
8.001779901,-1.889425603,-0.833837794
4.533065089,-1.072377949,-0.821111966
3.165006117,-0.749613988,-0.826771684
15.35054484,-4.247689273,0.287746372
10.02888303,-3.185286869,-0.864188485
5.002072968,-1.595060685,-0.820756523
3.378732986,-1.082544611,-0.826867313
8.763477407,-3.149383332,1.030051152
29.39060598,-7.10936878,-0.84357403
8.0132407,-1.944117714,-0.836259353
4.506303692,-1.095287603,-0.817466427
3.154696765,-0.767645103,-0.825293548
47.13380416,-13.31531238,4.46945949
47.07374405,-13.31608972,2.675152688
53.41168563,-13.05888842,0.47696699
11.3941676,-4.160880997,-0.879926036
5.262612088,-1.928863428,-0.822571587
3.476116557,-1.281373343,-0.827231158
53.36554622,-13.22124904,0.476914955
8.946005373,-2.578035784,-0.852361362
4.762167887,-1.376580559,-0.823049058
3.287666741,-0.953088857,-0.833305445
51.3975904,-12.9011824,0.459679378
10.01174604,-3.315636655,-0.866152935
4.992435617,-1.659752308,-0.822455494
3.379973995,-1.128861721,-0.830498905
15.70901892,-5.236155659,0.4567419
49.01733202,-12.46370164,0.438731236
10.01286842,-3.350131472,-0.867135159
4.981700676,-1.673173672,-0.821528762
3.394950551,-1.145452895,-0.835038394
14.81558062,-4.400988659,-0.282187787
7.999812802,-2.071294521,-0.838075565
4.488019731,-1.164034654,-0.817292859
3.141612382,-0.815701762,-0.825047201
38.19594549,-12.97016851,2.588747884
14.73443655,-5.022872762,-0.704989579
6.651100151,-2.275093609,-0.836096054
4.008924859,-1.376698813,-0.823617333
2.878538566,-0.993459697,-0.832887758
38.11637305,-13.04025762,7.07004344
14.76342475,-4.484257644,-0.281713156
8.010030964,-2.126468131,-0.840497182
4.507441249,-1.198637163,-0.822153556
3.1580891,-0.840697285,-0.830713397
37.53100104,-12.99588407,3.997227644
8.022502881,-3.121629426,-0.309639176
7.224406003,-2.821104972,-0.848837923
4.191596759,-1.642623996,-0.830895809
2.969296358,-1.171700879,-0.840831034
42.60539463,-13.15618968,5.713746088
14.72703757,-4.572091603,-0.281548856
8.904744741,-2.774584736,-0.853911262
4.725859263,-1.476760846,-0.822066296
3.230282101,-1.012138741,-0.824080672
8.11176276,-3.199893527,1.618377607
15.75986438,-4.953657294,-0.908285732
6.135302597,-1.93433952,-0.827397171
3.841826553,-1.216266542,-0.823306227
2.764665181,-0.876367857,-0.823911914
8.660352239,-3.088380088,0.925356424
7.612041275,-3.042875419,-0.29486533
7.200903283,-2.8885874,-0.849164318
4.178125176,-1.681867287,-0.8312588
2.947632055,-1.194621325,-0.837774389
14.95866605,-4.206830714,-0.433499468
8.003282469,-2.256645393,-0.843322384
4.474308916,-1.26362193,-0.81954961
3.15135029,-0.8908865,-0.832437879
7.832282675,-3.173256568,1.568379322
14.96684123,-4.258721903,-0.434112978
8.001104274,-2.282553033,-0.843826876
4.483667666,-1.281130786,-0.821979987
3.168170402,-0.906147345,-0.837611382
14.96254882,-4.297269712,0.135039596
9.956816854,-3.674676699,-0.871636979
4.943782599,-1.831032413,-0.824154465
3.335396191,-1.240565644,-0.829364032
7.637231966,-3.148921799,1.533161443
13.42114238,-3.912906877,-0.90232515
5.716028056,-1.670610532,-0.82475758
3.667460822,-1.072088798,-0.820256381
2.719112849,-0.795275511,-0.836707085
14.90807708,-4.380821367,0.134788049
9.975128158,-3.751136738,-0.87523847
4.951866336,-1.868657832,-0.827397913
3.320435768,-1.258247065,-0.827548236
8.336771213,-3.140978355,1.563495751
9.973822549,-3.785612644,-0.876138858
4.963652805,-1.890522679,-0.830332546
3.319288929,-1.269471739,-0.82822916
8.320651495,-3.164089695,1.562285777
38.12014458,-12.9499004,3.673840718
14.900069,-4.47796924,0.134961529
9.964953711,-3.817263552,-0.87638437
4.933851796,-1.896525319,-0.826316803
3.296298512,-1.272284894,-0.823462695
8.370676114,-3.212541369,1.573521492
38.12042223,-13.04266527,6.67428808
6.952695947,-2.979220188,-0.272075554
7.171680575,-3.083282434,-0.854386579
4.137397735,-1.784675973,-0.831621792
2.927184061,-1.270836197,-0.840576285
29.38227587,-12.64540195,7.171830097
8.654774579,-3.010667111,-0.167308269
8.871870923,-3.096431804,-0.86029325
4.693825662,-1.642544407,-0.825669696
3.247469015,-1.139210446,-0.837799575
42.66334824,-13.17439059,6.964242543
15.62452549,-4.851133076,0.739483168
6.878400509,-2.997471521,-0.269882848
7.154448276,-3.128025541,-0.854604195
4.127269785,-1.810424063,-0.831803288
2.929947126,-1.293459576,-0.843632932
29.1056845,-12.73859609,7.123262326
8.777765312,-3.110164035,0.168240415
11.01864187,-3.914551269,-0.642909283
6.107597757,-2.175827535,-0.833903078
3.819364914,-1.365756478,-0.828710879
2.776723197,-0.99406904,-0.83784873
28.63528985,-12.63754183,7.017594736
14.81056485,-4.699948243,0.134788049
8.869237163,-3.187385494,-0.862846057
4.682221728,-1.68701328,-0.82632487
3.242329622,-1.171031475,-0.839218762
7.424003592,-2.987436322,0.513573851
10.69681244,-3.874297113,-0.625506635
6.100657864,-2.215632032,-0.834796074
3.813674443,-1.390172573,-0.829311395
2.769667996,-1.010758269,-0.837575446
6.872078543,-3.09560979,-0.271105011
6.580799508,-2.688757243,-0.845544821
3.940985593,-1.615733423,-0.827622885
2.828259055,-1.164612832,-0.836581279
8.273301231,-3.049808575,-0.160991994
8.85166742,-3.273370769,-0.864031295
4.684995738,-1.736894211,-0.82960068
3.215020568,-1.194731278,-0.834961201
27.58936184,-12.58268326,6.798602503
8.274486656,-3.075497196,0.159479769
8.563084628,-3.926148267,-0.683349917
5.167688516,-2.376795953,-0.834768605
3.417001949,-1.579261021,-0.840524424
6.883268528,-3.164362599,1.11910055
8.100930825,-3.042857384,-0.157998142
8.832347991,-3.32797326,-0.864122432
4.665021687,-1.76212231,-0.827962746
3.222168198,-1.21994037,-0.838745739
8.07472895,-3.061316326,-0.157669557
8.833265545,-3.359302495,-0.865216533
4.661437201,-1.777128912,-0.828290333
3.190274167,-1.219068734,-0.831413177
8.268690448,-3.144557599,1.465470358
38.19932641,-13.00460045,3.299837672
7.76030802,-2.97341185,-0.456915224
6.071804027,-2.332529407,-0.836582008
3.8066375,-1.467535416,-0.833514955
2.753286083,-1.062606559,-0.838395246
6.953443489,-2.982898728,-0.342654881
6.563030972,-2.823560256,-0.849796718
3.924997507,-1.694224857,-0.830674702
2.817848324,-1.22146156,-0.84001099
29.47542133,-12.67779193,6.858195594
6.840655023,-2.959396171,-0.33754265
6.557070547,-2.844867611,-0.850151068
3.931482388,-1.711351908,-0.833154375
2.823809765,-1.234350682,-0.842913023
6.779061813,-3.252638668,0.00511802
8.199946069,-3.943900223,-0.660053084
5.158708606,-2.488709754,-0.840576719
3.381206287,-1.638909464,-0.838998962
26.02959869,-12.55338549,6.479193607
32.48215633,-12.80146858,7.108354676
6.888123851,-3.026511584,-0.06749684
8.606392039,-3.790988148,-0.772351079
4.867384098,-2.150708895,-0.831877023
3.288657777,-1.458553704,-0.838442954
28.69358895,-12.65571734,6.703101924
10.11327879,-4.053945182,-0.599045867
6.035310493,-2.425391587,-0.836582008
3.7954914,-1.530516956,-0.836117232
2.741122664,-1.106515154,-0.839761623
8.299124664,-3.002823146,0.07655829
13.22298517,-4.798493206,-0.907928821
5.666429083,-2.060546214,-0.835046475
3.656065619,-1.329712279,-0.835158675
2.681195603,-0.975575614,-0.842655269
6.836758087,-3.387719238,-0.274447997
6.531661717,-2.953705684,-0.852631337
3.902087203,-1.77023971,-0.832582112
2.82034383,-1.284717727,-0.847661843
7.316684397,-3.007492194,-0.144434584
7.973422715,-2.952133816,-0.862291561
4.397253043,-1.630163242,-0.82666706
3.101236177,-1.15062341,-0.840814
31.04614187,-12.78912627,6.836229911
8.20827965,-3.061390037,-0.244399441
7.990422323,-2.986334285,-0.865116762
4.400532131,-1.646752565,-0.828229417
3.099506788,-1.160812374,-0.841306693
8.196126711,-3.079818383,0.075951098
7.207135569,-3.658993683,-0.586327979
5.108484638,-2.601158929,-0.841302704
3.385201618,-1.731584676,-0.84902339
24.64093781,-12.54286341,6.199163358
6.810689902,-3.47954559,-0.275095036
7.047371539,-3.611173776,-0.866680693
4.064463271,-2.088872854,-0.843419102
2.872606318,-1.484901594,-0.851783985
6.789141085,-3.184028321,-0.06727257
8.600958949,-4.043459738,-0.780536227
4.837265312,-2.280889586,-0.83604726
3.272119892,-1.548403307,-0.843663368
7.949162658,-3.070803807,0.073921343
13.13550348,-5.088547955,-0.909217056
5.630108043,-2.185336704,-0.836418335
3.615730731,-1.403670236,-0.832639962
2.66677965,-1.035704425,-0.8449212
6.800168853,-3.240250543,-0.067577582
8.635342619,-4.124508506,-0.785938434
4.83654463,-2.316930419,-0.838364034
3.258168723,-1.566341706,-0.842528495
23.65028016,-12.41529272,7.047365608
6.800781717,-3.576757326,0.005230332
6.83518044,-3.603076625,-0.560498844
5.086352671,-2.688923774,-0.844351959
3.354794317,-1.781476287,-0.848151673
26.00890014,-12.52906809,7.304001147
29.18143025,-12.74793508,7.729272959
7.799999844,-3.074413442,1.624680183
6.776522409,-3.590582277,0.005220122
6.80647683,-3.614673867,-0.55905188
5.078079339,-2.704515882,-0.844351959
3.357058114,-1.795903611,-0.850112964
23.43434019,-12.47702002,5.952387252
7.717551737,-3.069304877,1.609460732
6.80151094,-3.638832141,-0.559558282
5.061039635,-2.71540465,-0.84289993
3.340363606,-1.800175429,-0.847280013
7.069055835,-3.14301863,1.575090041
7.487988383,-3.024540668,0.365023007
6.879961277,-3.081694772,-0.414479132
5.996235629,-2.692138718,-0.845384065
3.725193557,-1.677820699,-0.834715988
2.691315145,-1.2133504,-0.838668535
22.90921957,-12.37844359,5.838187141
7.68219363,-3.109969961,1.606036326
6.796162736,-3.685178876,-0.278078546
7.00553026,-3.80963159,-0.87277336
4.024062803,-2.194582339,-0.845960108
2.805624262,-1.538676709,-0.842868799
22.86097174,-12.45193269,6.868279401
7.66443616,-3.13018347,1.604324123
6.842433764,-3.111685482,-0.137242062
8.630371675,-3.935503015,-0.868407529
4.582212091,-2.094059229,-0.836479892
3.147571726,-1.441355368,-0.842766787
22.90727237,-12.55959199,5.857220571
6.829940973,-3.124693244,0.410713523
6.892142035,-3.163630001,-0.416949535
5.973907353,-2.748456163,-0.845766786
3.71759984,-1.715730418,-0.836517538
2.690512792,-1.242910162,-0.841947745
24.7360649,-12.48904067,5.922825626
6.760024826,-3.742801587,0.005259601
6.819023186,-3.783868076,-0.56570811
5.039541621,-2.804263691,-0.846384776
3.301282008,-1.845012424,-0.844447005
22.34917401,-12.44124283,6.748633806
6.786483586,-3.466786668,-0.068367016
9.661685179,-4.946820885,-0.891445092
4.793586333,-2.461308713,-0.842379776
3.206756826,-1.652128348,-0.840712698
22.124173,-12.39642549,5.685921113
6.825289433,-3.516974534,-0.347721871
6.440258652,-3.327113148,-0.862198239
3.84981829,-1.994738535,-0.842500622
2.755524351,-1.433115504,-0.849508573
21.75126063,-12.28382273,6.590722027
21.77161562,-12.28679928,5.60497467
6.861323068,-2.94518871,0.064770086
8.456931877,-3.639538793,-0.594250258
5.573145034,-2.402849557,-0.840533857
3.585856502,-1.546257122,-0.838307053
2.657672378,-1.146454918,-0.854834821
21.91049011,-12.47217821,7.706035051
6.763204069,-3.857502137,-0.280055573
6.757294728,-3.864924072,-0.851993036
4.002452176,-2.295656838,-0.851586489
2.791202625,-1.609681309,-0.84872734
21.60332416,-12.37572056,6.568782748
21.60097024,-12.36586106,5.580472391
6.828459336,-2.98083263,0.064631296
7.810954313,-3.418489987,-0.550322351
5.600933844,-2.455694848,-0.846981589
3.579882962,-1.569801006,-0.839146643
2.661127033,-1.167363759,-0.858233777
26.10592698,-12.5681608,7.032508491
21.56462053,-12.43304811,5.580909651
6.761659912,-3.585938697,-0.068663057
6.815138311,-3.622381437,-0.633858314
4.775321615,-2.545237393,-0.845932156
3.209378148,-1.716278912,-0.848202857
21.30627019,-12.37980011,6.501433794
28.6001623,-12.58932506,7.265973634
21.42511496,-12.44035272,5.554656905
7.881325973,-3.510362724,-0.875004993
4.34613697,-1.937962548,-0.838818836
3.037538088,-1.355405674,-0.845494754
23.17584479,-12.42422445,5.620580961
7.881410852,-3.539416654,-0.876215803
4.341069335,-1.951691067,-0.838992407
3.043087737,-1.369092409,-0.848204678
6.806384279,-3.066034788,0.610462212
6.752278893,-3.989768219,-0.282104512
6.752804075,-4.001057536,-0.859064888
3.954086317,-2.349246638,-0.848864046
2.795239572,-1.669662894,-0.857642527
22.9260817,-12.46529027,6.60227328
25.05500077,-12.44321989,6.790032503
20.90684725,-12.39811325,5.449645917
6.776922224,-3.388254909,-0.138337371
8.655938311,-4.338852903,-0.88645945
4.524068903,-2.272368495,-0.840574671
3.093254597,-1.556668865,-0.8430033
20.56260975,-12.28767907,6.320052088
22.83416475,-12.50622899,6.586820897
6.814484124,-3.130341744,-0.20920637
7.851212343,-3.613053072,-0.876518475
4.330078307,-1.994859054,-0.840381195
3.029478117,-1.396636591,-0.847958334
20.48753455,-12.32827303,6.308572236
20.42899235,-12.28479049,5.344634455
6.761478201,-4.079624253,-0.284045597
6.874740148,-4.159263844,-0.87940998
3.954997813,-2.399311178,-0.853764501
2.757463003,-1.681724132,-0.850765102
24.54176524,-12.47122066,6.681767581
20.25515399,-12.2650245,5.308974663
22.2423814,-12.36673424,5.439568332
6.800583264,-3.174632848,-0.20937368
7.839709669,-3.666216593,-0.877729284
4.323999911,-2.024313271,-0.841596355
2.998032571,-1.404508719,-0.84155304
20.29264509,-12.38123048,6.271836701
6.817041496,-3.207824512,-0.210182396
7.843723721,-3.69746295,-0.879444586
4.322222406,-2.039671163,-0.842464377
3.006855299,-1.419907629,-0.845248408
22.06755835,-12.44080537,6.409242923
19.89428959,-12.21396473,5.233935276
22.02128454,-12.42130306,5.404034904
6.81890931,-3.23429266,-0.210544926
7.836836163,-3.723644702,-0.87994908
4.318612243,-2.054190893,-0.842985143
3.013861325,-1.434540841,-0.848451027
19.78129491,-12.23642734,6.136884156
19.80111463,-12.24056567,5.219277303
21.71778577,-12.33809339,5.33882027
6.754218476,-4.18915475,-0.285878828
6.841752808,-4.254863466,-0.881803524
3.941111307,-2.457550852,-0.857212928
2.742353582,-1.719031001,-0.852548175
19.61398425,-12.2162901,6.09657711
21.59022526,-12.34689266,6.292492684
19.78334978,-12.31363131,5.224527757
21.49479356,-12.29879062,5.293253709
6.971046638,-4.353308398,-0.295620223
6.8480451,-4.287967458,-0.884305905
3.931887563,-2.468584603,-0.856849936
2.745244356,-1.732597499,-0.855095379
19.65095752,-12.32315439,6.119791928
21.48923769,-12.37678393,6.274097259
25.92968194,-12.47460288,6.690711087
19.71736641,-12.35665025,5.217089573
21.28919566,-12.26800294,5.251867582
6.751444989,-4.241071952,0.005427049
6.741580395,-4.243741368,-0.577862987
4.948196162,-3.123033793,-0.85872699
3.259538532,-2.065686866,-0.861662853
19.52197802,-12.33493414,7.058287534
23.49252411,-12.46474734,7.530003782
21.20881176,-12.30207783,6.203213032
25.76420839,-12.49247643,6.657871313
19.48625932,-12.29524163,5.165896812
6.907895634,-4.373015134,-0.294074526
6.855176802,-4.351214137,-0.888657761
3.918325937,-2.493719666,-0.857212929
2.747594944,-1.757747374,-0.859170848
19.21919882,-12.21733751,6.008564891
21.32918009,-12.45950724,6.249569709
19.3594949,-12.29845759,5.142269056
6.805959351,-4.33778969,-0.290300181
6.822529367,-4.359913461,-0.886155438
3.906516496,-2.503076686,-0.856305447
2.734059513,-1.760932464,-0.856623701
18.9544082,-12.13082458,5.937389793
25.48784379,-12.55221214,6.606233187
19.17946131,-12.26683941,5.104421535
20.93772134,-12.32354177,5.192923358
6.787572806,-4.355411434,-0.290084531
6.828349091,-4.393194975,-0.888657761
3.88642317,-2.5070536,-0.853583003
2.738380632,-1.775625448,-0.859680289
19.03983464,-12.26799957,5.975911083
20.7610576,-12.29911026,6.105103787
19.10563958,-12.30237878,5.094795148
20.88130768,-12.37674983,5.188324741
6.783029443,-4.039812746,-0.357539144
6.298295636,-3.760057109,-0.872473723
3.78847741,-2.267898517,-0.857950622
2.669900785,-1.603859751,-0.851882984
18.85771653,-12.2326909,5.930501881
24.90421218,-12.45523679,6.47464759
18.87457337,-12.23567069,5.043164651
6.756531524,-4.394253031,-0.289904793
6.802929903,-4.436095818,-0.888875377
3.877552006,-2.535158199,-0.855034975
2.72824226,-1.792925469,-0.859935039
18.77961873,-12.26405338,5.917746012
18.51744021,-12.08500187,4.957624356
20.43785647,-12.28398937,5.096773439
6.758067929,-4.424814618,-0.290551831
6.79510513,-4.460765077,-0.889636946
3.869755991,-2.547042384,-0.855034974
2.720309235,-1.799686477,-0.859170848
18.70716401,-12.29876974,5.906776373
20.6063343,-12.46508188,6.093085581
18.66539891,-12.26338196,5.007285993
20.38417768,-12.33701358,5.092802337
6.786531052,-4.126985193,-0.35971072
6.263422185,-3.817865859,-0.872473723
3.754879949,-2.294991767,-0.85508948
2.663248716,-1.633407886,-0.854521206
18.54517185,-12.2739232,5.86748976
22.11930214,-12.37379502,6.151764508
18.56176422,-12.27698696,4.989565294
6.812042201,-3.838726334,-0.429905439
5.82965395,-3.291836408,-0.861074808
3.626835569,-2.053649516,-0.851530457
2.600207863,-1.473593408,-0.849052797
18.32778713,-12.21985094,6.732952031
20.06124878,-12.30411698,6.915696369
18.51788924,-12.33773004,5.870806162
21.87888997,-12.32758579,6.095391389
18.40786632,-12.25654178,4.958280486
20.00553574,-12.27619498,5.016927531
6.815864228,-3.868478928,-0.430893625
5.829010666,-3.315099488,-0.86247802
3.607751671,-2.057486105,-0.848527872
2.602358143,-1.48537857,-0.851238976
20.03891626,-12.37518452,6.921053159
18.20772508,-12.21190425,5.784324589
18.23157349,-12.22005751,4.920870226
19.92535216,-12.311298,5.006267361
6.793561574,-3.883425229,-0.430234844
5.819673475,-3.333460181,-0.862605575
3.606519855,-2.07147285,-0.849728906
2.587781204,-1.487602626,-0.847959707
18.10348899,-12.23142537,6.677998458
18.18620111,-12.27852785,5.789426747
21.5210417,-12.30053799,6.016610261
23.71973395,-12.41382209,6.225065298
18.09288898,-12.20771246,4.893523616
19.83600685,-12.34034305,4.993308356
21.65277676,-12.38636274,5.078792681
6.792864683,-3.91072565,-0.43094852
5.802545979,-3.347334056,-0.861585083
3.613717329,-2.090376962,-0.852931643
2.594027489,-1.501800384,-0.851512263
19.65427546,-12.30487223,5.86669808
21.52952494,-12.3931705,6.029583094
23.47734101,-12.37886888,6.17138917
17.81964981,-12.10307539,4.829641742
19.61241208,-12.28485894,4.94648724
21.38542506,-12.32065927,5.024926295
6.78260849,-3.61112827,-0.495959994
5.445248993,-2.903741468,-0.854663973
3.480994025,-1.856514086,-0.846912593
2.556240103,-1.363774734,-0.855684546
17.83081923,-12.20721619,6.604922684
17.63968138,-12.06777175,5.638913097
19.35235253,-12.19865281,5.787720017
23.52527254,-12.49653092,6.194037504
17.79129435,-12.16374615,4.832048338
19.48364421,-12.28758881,4.923495105
21.06613554,-12.22294356,4.958690753
6.769739089,-3.630976657,-0.495831188
5.446785894,-2.926058717,-0.856310193
3.486478521,-1.87320057,-0.849641231
2.541062103,-1.365708449,-0.85200235
17.61451968,-12.13005938,5.642739715
19.26736303,-12.22783776,5.773494059
21.06283714,-12.29720475,5.919902917
17.77237951,-12.23099517,4.837080397
19.26010518,-12.22936341,4.876465134
20.98877341,-12.26427998,4.949313752
6.770858949,-3.658369989,-0.496732947
5.428200545,-2.937569589,-0.854801123
3.472116839,-1.879234331,-0.847542315
2.542763899,-1.376694133,-0.853985098
17.62749751,-12.2275476,6.557276638
17.74251347,-12.29861762,5.695802155
19.24609541,-12.29733144,5.778399283
21.03506334,-12.3676769,5.922733422
17.63049712,-12.21322777,4.808639448
19.17388307,-12.25731849,4.864133169
20.98482823,-12.34849334,4.957294097
6.867095657,-3.734680473,-0.218074349
6.75179819,-3.677932777,-0.779755342
4.241878824,-2.312999457,-0.851665008
2.96496901,-1.617736964,-0.858551629
19.11944953,-12.29917867,6.680558905
17.48901005,-12.2025015,5.626412811
19.07048819,-12.26768188,5.736948306
17.3272103,-12.08196818,4.736007134
19.0786251,-12.27903823,4.849501422
20.8903653,-12.37934646,4.943927399
10.39281841,-7.277780305,-0.920369933
4.794664162,-3.36604787,-0.859743428
3.172601704,-2.236068453,-0.866675009
17.43086356,-12.25024625,6.511969479
19.00512216,-12.30823287,6.653774486
17.2726629,-12.13051031,5.568757955
18.9806842,-12.29240489,5.721250827
17.29804876,-12.14067559,4.738194863
18.97685087,-12.29603517,4.833197884
20.50476204,-12.23599737,4.861531844
6.758046675,-4.399162693,-0.36518487
6.188271553,-4.037499082,-0.878851658
3.713931012,-2.42951257,-0.862337643
2.628018736,-1.724919349,-0.859797648
17.19430972,-12.15442234,5.555492347
18.76909334,-12.23727081,5.668762023
20.55875699,-12.34365535,5.820365067
17.12284457,-12.09628778,4.700346868
18.66137657,-12.17307543,4.762339879
20.43437032,-12.27916384,4.853751292
10.33332493,-7.331024639,-0.919067631
4.802139582,-3.415474833,-0.864825499
3.161204563,-2.257194277,-0.86732881
17.06712551,-12.15174172,6.403816613
20.31144124,-12.25929475,6.717340705
17.09627382,-12.16395375,5.535849038
18.68931857,-12.26713371,5.65600806
17.10712446,-12.16402998,4.706253925
18.56427194,-12.19108477,4.747081092
20.40330931,-12.34585626,4.855347267
10.31809006,-7.367908374,-0.919718811
4.792442923,-3.430767581,-0.864970696
3.146339411,-2.261186493,-0.865149547
18.51321538,-12.23297719,6.520698774
16.99912977,-12.17356225,5.516460839
18.64512464,-12.32013827,5.654045874
17.0927368,-12.23292501,4.712598244
18.47783627,-12.21562372,4.734539797
20.1619929,-12.28449955,4.806867709
9.259944383,-6.156144076,-0.913217596
4.599862448,-3.065701144,-0.864157467
3.088043209,-2.064263465,-0.865679892
18.38373103,-12.22860853,6.488275754
20.10124405,-12.30132554,6.672662017
18.45064421,-12.2731184,5.60646277
17.04958363,-12.28131494,4.711066644
18.20418214,-12.11513482,4.673923781
20.09748127,-12.32989977,4.800483337
9.244326892,-6.186741674,-0.913545004
4.590435389,-3.079798775,-0.864157467
3.068767564,-2.065028264,-0.862048299
18.28394524,-12.24331315,6.4662845
18.2743534,-12.23688917,5.564275559
19.814467,-12.2300659,5.651716825
21.84451286,-12.38878968,5.839367931
16.91465568,-12.26311633,4.684157769
18.44315771,-12.35598676,4.744991114
6.783359116,-4.933301448,-0.301695098
6.633905687,-4.836834572,-0.89855833
3.763140692,-2.750683464,-0.860298364
2.636519521,-1.93672286,-0.861718053
16.698967,-12.20116486,6.321386725
16.69426507,-12.18923851,5.453704302
18.1989415,-12.26742933,5.552748017
19.84618326,-12.33388607,5.671529886
21.60257188,-12.33932309,5.784785813
16.6199865,-12.12744681,4.612837236
18.04761675,-12.17138056,4.65281277
16.69896349,-12.18507613,3.836553137
9.852802209,-7.219845863,-0.886075864
4.732438825,-3.476433327,-0.861776244
3.124638063,-2.30426067,-0.866892923
18.10288783,-12.28362325,6.428786505
21.63051926,-12.4113172,6.804580197
16.57731573,-12.18199687,5.427683297
18.14998947,-12.31558368,5.549313838
19.48861656,-12.19470979,5.580011961
21.51142516,-12.3749421,5.770517416
16.46394643,-12.09116434,4.57980291
18.07087157,-12.26788684,4.668489268
16.5513502,-12.15535408,3.811188977
9.825789448,-7.246487921,-0.885641763
4.720160021,-3.489759413,-0.86148585
3.114419296,-2.311509453,-0.866021265
16.56306152,-12.25845347,6.298294457
19.65149421,-12.36009276,6.57322478
16.51965168,-12.21784877,5.421050492
17.92959845,-12.24654081,5.493391805
19.44700141,-12.25185192,5.578832742
21.45060267,-12.42769645,5.764402456
16.5028881,-12.19787755,4.601023595
17.77639759,-12.14781446,4.602020552
16.42463494,-12.14003715,3.790569346
6.774507366,-3.961309981,-0.506523308
5.376423173,-3.148584523,-0.862895075
3.423605411,-2.005200166,-0.851740149
2.494037152,-1.461221357,-0.853701798
16.23700323,-12.09441241,6.188387783
17.70382115,-12.17214864,6.313473448
16.34868269,-12.16917065,5.377171937
17.86318308,-12.28171719,5.484561736
21.10698641,-12.31526366,5.68218953
16.32211575,-12.14187091,4.560988346
17.73984978,-12.20284891,4.602229407
16.21928082,-12.06537388,3.751701872
6.758883042,-3.980049852,-0.506265638
5.367591368,-3.16556747,-0.863032285
3.431754144,-2.024138477,-0.855308265
2.493672424,-1.471302708,-0.855118062
16.11947645,-12.08393948,6.157695683
16.35924861,-12.25521225,5.392988623
17.48423261,-12.10033684,5.379584605
16.25198027,-12.16732795,4.551799694
19.16613417,-12.24971439,4.6311041
6.735645852,-4.326864483,-0.146168826
8.300166055,-5.343967888,-0.903781991
4.334890911,-2.796003106,-0.856462407
2.959205536,-1.911905906,-0.857668366
17.57684221,-12.24435286,6.294865355
19.12232609,-12.27432726,6.433739898
16.1617544,-12.18485207,5.340181292
17.49714232,-12.18883185,5.39503699
19.05304175,-12.25005537,5.497928735
16.13976024,-12.16076047,4.530797402
16.08290796,-12.11792458,3.737286369
6.744483153,-4.024473703,-0.219106165
6.739836267,-4.027924122,-0.796302961
4.162337063,-2.489901953,-0.854963292
2.878980614,-1.723224117,-0.852885433
16.04198074,-12.18030562,6.156526478
18.93103562,-12.23371186,6.381977793
16.07653927,-12.19814235,5.324364605
17.38981389,-12.19347582,5.373452956
18.85139514,-12.20231248,5.450518723
20.68148191,-12.3235324,5.597938603
15.97564045,-12.11411757,4.495137137
18.91214756,-12.25147555,4.587811578
6.768091172,-4.066769789,-0.220277411
6.741938562,-4.057303754,-0.798018264
4.15467866,-2.502660022,-0.854963292
2.899412187,-1.747558029,-0.860522515
16.01441538,-12.2370129,6.160326868
15.84922489,-12.10246377,5.261352485
17.37529245,-12.26298092,5.380565935
15.80032466,-12.05770416,4.456195752
18.76613019,-12.23878171,4.561476817
6.728007469,-4.772046075,-0.373554435
6.053927864,-4.303470488,-0.883457905
3.622099745,-2.581362845,-0.864245051
2.567351433,-1.835627549,-0.863227356
15.66977059,-12.04998378,6.041942986
17.10047916,-12.1477943,6.164045557
18.64875602,-12.21415642,6.311962842
15.82045324,-12.15751233,5.26415867
17.10601901,-12.15172929,5.308700852
18.59740882,-12.20048071,5.398626919
20.26784633,-12.246197,5.506213731
15.80891653,-12.14118797,4.469103257
18.62937988,-12.23122321,4.53733646
6.758865973,-4.825169297,-0.376087931
6.043119134,-4.323756928,-0.883812195
3.60937726,-2.589030307,-0.863100583
2.55857624,-1.841241866,-0.862172059
17.06781267,-12.20354894,6.165736901
18.66742418,-12.30838706,6.331032989
20.40313559,-12.38234248,6.512127865
15.63775486,-12.09360325,5.215688173
18.44393194,-12.1808973,5.364897365
15.63030704,-12.0804332,4.429068007
18.59340168,-12.28940128,4.537735572
6.75944456,-4.856958211,-0.376947519
6.029019934,-4.341696242,-0.883694118
3.603009038,-2.601240695,-0.863482111
2.55057177,-1.847385315,-0.861380626
15.60836433,-12.15589417,6.046912106
17.00147876,-12.23511919,6.155305134
20.22510761,-12.35936217,6.467378128
15.57387204,-12.12073658,5.206759397
16.8729736,-12.14263974,5.25940066
19.97887214,-12.23956223,5.448008125
15.57699713,-12.11574956,4.424473683
18.29047212,-12.16997067,4.472896684
6.782557228,-4.905187392,-0.379073855
5.629476587,-3.775252598,-0.871790412
3.514916285,-2.363233796,-0.865342283
2.496410647,-1.679776355,-0.854791529
15.53787932,-12.17776703,6.034050855
20.04083995,-12.33136242,6.420522677
15.52443369,-12.15892097,5.202677672
16.6338625,-12.04819615,5.196365175
18.25578081,-12.21816688,5.331874965
19.91635892,-12.28545743,5.441213673
16.81580561,-12.18579841,4.438774876
15.48549954,-12.12101576,3.649698059
