x,y,z
-1.776575124,-5.338112868,-0.934099246
-1.411766577,-4.232593874,-0.911581959
-1.171065176,-3.509726341,-0.900717344
-4.634276491,-11.12288993,3.683042201
-3.830451868,-11.59462506,3.457426785
-5.004008026,-12.02152432,3.435543004
-4.442725313,-13.414145,3.429807303
-8.675011192,-20.85810602,5.064823548
-7.482329214,-22.56406115,4.839985479
-8.761496999,-21.06605117,4.234350246
-7.495299967,-22.58338333,3.941750572
-8.749384222,-21.04003266,3.366069535
-4.460599249,-13.41631137,1.811672467
-5.530357916,-13.29909858,1.593176525
-4.406966906,-13.23878991,1.273262457
-5.487365665,-13.17948918,1.053139076
-4.41573264,-13.24968702,0.76371309
-5.513005032,-13.22935656,0.532798243
-4.429064472,-13.27115479,0.252757998
-5.520123771,-13.23277644,0.009759566
-3.973523221,-13.49155516,-0.392366511
-2.728526975,-9.253017694,-0.62265521
-2.138883751,-7.244089503,-0.76603298
-1.774904869,-6.004398946,-0.867147807
-1.499679575,-5.07137422,-0.932213831
-1.202812732,-4.068261359,-0.910719661
-1.00156197,-3.383663145,-0.896983214
-4.669490719,-11.11126477,3.683919104
-3.872098217,-11.60107221,3.462875365
-5.043486344,-12.01235566,3.437328757
-4.488175593,-13.41335356,3.433109637
-8.73933893,-20.83229147,5.06504194
-7.557745219,-22.55958223,4.843975652
-8.805926029,-20.9910188,4.224679035
-7.571135585,-22.57992593,3.945182608
-8.749990293,-20.86074377,3.34166501
-4.495422234,-13.38375837,1.809130449
-5.575361736,-13.29215091,1.594385903
-4.448196901,-13.22709546,1.273444251
-5.540903047,-13.19385501,1.055640326
-4.460503001,-13.24837957,0.764422922
-5.555889546,-13.21790786,0.533021164
-4.476466931,-13.27740082,0.253137352
-5.566512811,-13.22960496,0.009769776
-4.021459182,-13.50133508,-0.393007916
-2.7611799,-9.258947555,-0.623621401
-2.163660231,-7.246073293,-0.766941058
-1.79360149,-5.999874429,-0.867285017
-1.515795593,-5.068636659,-0.932561028
-1.216128663,-4.067362483,-0.911349326
-1.011104443,-3.377788919,-0.896244174
-4.699078795,-11.08632088,3.68041149
-3.911053251,-11.59916741,3.465872049
-5.080693065,-11.99771608,3.437583865
-4.53179573,-13.4068862,3.434996484
-8.794084683,-20.78381508,5.059791486
-7.642313601,-22.58177127,4.853751292
-8.807450737,-20.81540369,4.19475321
-7.644488752,-22.56873936,3.947307394
-8.809709445,-20.82377871,3.340057591
-4.537099242,-13.37178222,1.809384722
-5.630056858,-13.30793727,1.598343771
-4.495803604,-13.23413059,1.27544351
-5.593802013,-13.20617935,1.057994589
-4.501770488,-13.23652392,0.764532118
-5.609677011,-13.23208188,0.534284246
-4.525883047,-13.28915852,0.253625037
-5.617231602,-13.23639877,0.009787474
-4.062861923,-13.48893389,-0.393007916
-2.795335268,-9.269541278,-0.624909577
-2.188468826,-7.247973074,-0.767849135
-1.811140514,-5.991498884,-0.866873447
-1.530198612,-5.060191737,-0.931866634
-1.217000136,-4.025240928,-0.902743785
-1.018935586,-3.366322464,-0.894026942
-4.726678981,-11.0569036,3.675442371
-3.948171468,-11.59166773,3.46723437
-5.119376607,-11.98651861,3.438859405
-4.571336014,-13.38832183,3.433817265
-8.845552232,-20.72801764,5.052791038
-7.708387819,-22.54894606,4.851756205
-8.819557959,-20.66710691,4.170301477
-7.719122194,-22.56104838,3.950085685
-8.851424726,-20.74478841,3.331727961
-4.577780585,-13.35686149,1.809257527
-5.670078343,-13.28877371,1.598123949
-4.539293274,-13.22875308,1.276261405
-5.633116438,-13.18620501,1.057773815
-4.544629156,-13.22926058,0.764914362
-5.655746462,-13.22767295,0.534804356
-4.570209858,-13.28561108,0.253823729
-5.666076975,-13.2384093,0.009801769
-4.117331365,-13.51943699,-0.394262803
-3.495197567,-10.13294201,-0.58932894
-2.665870444,-7.714219353,-0.747240703
-2.147730863,-6.208913145,-0.845001403
-1.848407816,-5.334552188,-0.937375058
-1.464243456,-4.216801376,-0.911982262
-1.19938125,-3.452871128,-0.889836814
-4.751113501,-11.02039508,3.668134603
-3.984654733,-11.58222957,3.468051668
-5.159951348,-11.97963681,3.441410484
-4.615557374,-13.38342109,3.43617594
-8.894830692,-20.66761904,5.044696251
-7.779769207,-22.53167467,4.85315286
-8.878258434,-20.62911337,4.16811184
-7.790557467,-22.54378764,3.951229618
-8.878661871,-20.63302543,3.318137387
-4.620034994,-13.34650352,1.809765954
-5.718285765,-13.28866299,1.600212853
-4.581813516,-13.22041002,1.276806668
-5.687750285,-13.20183357,1.060422288
-4.584539997,-13.21336878,0.764805166
-5.705798062,-13.2322823,0.535695922
-4.61455763,-13.2819162,0.254022421
-5.718554019,-13.24850733,0.009822189
-4.164083612,-13.52393856,-0.394764764
-3.54039339,-10.16271649,-0.591689581
-2.695759607,-7.723868298,-0.748972992
-2.16611525,-6.200421776,-0.844746235
-1.86541702,-5.330718459,-0.937702645
-1.476200854,-4.209515562,-0.911381745
-1.210933788,-3.45192582,-0.890546408
-4.778419115,-10.99085726,3.663165481
-4.02332784,-11.57903926,3.470775841
-5.193213372,-11.95576848,3.439114514
-4.644129381,-13.33340618,3.426977033
-8.84980752,-20.39049922,4.983658236
-7.857570703,-22.53268271,4.858539215
-8.921150401,-20.55487767,4.158622782
-7.865860817,-22.53747639,3.95433478
-8.889937924,-20.48589957,3.298847655
-4.660632373,-13.33132986,1.809638876
-5.768919885,-13.29385122,1.602961461
-4.628273369,-13.22321007,1.278442457
-5.73418738,-13.19804185,1.061525927
-4.62868895,-13.20960715,0.765405743
-5.744773292,-13.21104933,0.535547328
-4.656939391,-13.27241383,0.254112752
-5.77194429,-13.26024125,0.009843971
-4.211199619,-13.52923398,-0.395294619
-2.906065029,-9.325356454,-0.630448875
-2.258640805,-7.238920465,-0.769059943
-1.864731469,-5.969848791,-0.866187518
-1.573181821,-5.034614132,-0.929783454
-1.2598271,-4.032534486,-0.906941622
-1.046114375,-3.344776948,-0.890824325
-4.800212554,-10.94899443,3.654104144
-4.064567256,-11.58298372,3.475679634
-5.230256308,-11.9406647,3.43936962
-4.685658938,-13.32092919,3.427448628
-8.914670114,-20.36861633,4.984970968
-7.928290193,-22.51309079,4.859536758
-8.975102686,-20.50669572,4.154426137
-7.949397698,-22.55417863,3.961525723
-8.94084828,-20.43134054,3.294463614
-4.698868914,-13.30948561,1.808622021
-5.818045378,-13.29521174,1.605270188
-4.669483709,-13.21082703,1.278624134
-5.784256152,-13.20230996,1.063291535
-4.684515636,-13.23864466,0.767917423
-5.80373762,-13.23546146,0.537256193
-4.699974405,-13.26466087,0.254239203
-5.819029905,-13.25712204,0.009854862
-4.252986913,-13.51720344,-0.395322514
-2.926865835,-9.291648812,-0.628774222
-2.279641834,-7.228161776,-0.76865636
-1.885125528,-5.970711592,-0.867147808
-1.588027189,-5.027885419,-0.929436255
-1.277786822,-4.046365035,-0.910929532
-1.056371011,-3.341551656,-0.890824323
-4.82720787,-10.91934655,3.649134787
-4.0971921,-11.562297,3.473227738
-5.263349197,-11.91660241,3.43707365
-4.731383692,-13.32022755,3.43098676
-8.955055301,-20.29117935,4.972719592
-8.003232059,-22.50527996,4.863127819
-9.024080202,-20.44758021,4.14803938
-8.023848432,-22.54455504,3.96414046
-9.006683248,-20.41105402,3.29563258
-4.739346585,-13.29407331,1.808494944
-5.865227367,-13.29184904,1.60702924
-4.71702167,-13.21613503,1.280532555
-5.846092879,-13.23285119,1.067190634
-4.727460565,-13.23079251,0.768299667
-5.848356873,-13.2267328,0.537627709
-4.752099363,-13.28218639,0.25485334
-5.864126722,-13.24926532,0.009862349
-4.295043091,-13.50599727,-0.395378274
-2.945367765,-9.251246763,-0.626648662
-2.302411158,-7.223029675,-0.768858181
-1.905843544,-5.972449292,-0.868245308
-1.603145609,-5.022051623,-0.929262686
-1.291978514,-4.048014189,-0.912188916
-1.068977554,-3.345680736,-0.892795153
-4.859127563,-10.90099235,3.647965584
-4.141397393,-11.57413281,3.480583428
-5.294376974,-11.88803239,3.433502139
-4.784366361,-13.33949428,3.439714071
-8.773288327,-19.71534201,4.838174263
-8.081512249,-22.50644451,4.868713967
-8.806955494,-19.79100045,4.020306152
-8.098314893,-22.53468672,3.966755435
-9.000895931,-20.22967412,3.270789604
-4.784141056,-13.29067005,1.810020109
-5.907190468,-13.27651711,1.607359093
-4.763285989,-13.21752762,1.282077506
-5.885445869,-13.21212036,1.066969977
-4.770063117,-13.22186213,0.768627255
-5.900709083,-13.23519635,0.538705062
-4.790108513,-13.26002226,0.254708828
-5.912490449,-13.24856339,0.009875282
-4.335235264,-13.48895023,-0.395266724
-3.696461648,-10.20581417,-0.596795077
-2.796454391,-7.707055987,-0.750614087
-2.252875161,-6.203205509,-0.848828378
-1.930692587,-5.307425384,-0.937702645
-1.528418037,-4.19292473,-0.911782111
-1.261857289,-3.460539312,-0.896696294
-4.89490064,-10.89126634,3.649719389
-4.181137082,-11.57313631,3.484125134
-5.311812113,-11.82939427,3.421256725
-4.826261598,-13.32749419,3.440421697
-8.862492265,-19.75243239,4.853925626
-8.137496956,-22.4456158,4.860933413
-8.868034359,-19.76478543,4.02048878
-8.172459485,-22.52364669,3.969206855
-8.872604949,-19.77774381,3.202106218
-4.824893849,-13.27592986,1.810020108
-5.947894804,-13.25833115,1.607359092
-4.806879072,-13.21127496,1.282895283
-5.916554441,-13.1730774,1.06527792
-4.81128809,-13.20904208,0.768736451
-5.944973758,-13.2252343,0.539039385
-4.834535414,-13.25559589,0.25490752
-5.960904816,-13.24768823,0.009888214
-4.381538539,-13.49079778,-0.395712924
-3.731184435,-10.20380361,-0.597344036
-2.820085994,-7.698440109,-0.750614087
-2.273944348,-6.201851834,-0.849593762
-1.944925961,-5.295921134,-0.936719884
-1.541951325,-4.190054743,-0.912182475
-1.282873422,-3.484917654,-0.904028798
-4.937764368,-10.8971036,3.656734854
-4.21761233,-11.56296579,3.484942432
-5.337711189,-11.79013988,3.414623919
-4.867126862,-13.31262483,3.440421697
-8.925061593,-19.72959515,4.855019491
-8.208342281,-22.42606533,4.862130275
-8.993873994,-19.88171056,4.049867194
-8.197068803,-22.37711564,3.947797582
-9.086938249,-20.09024005,3.257199267
-4.885759158,-13.31600438,1.817518968
-5.978302419,-13.21738037,1.604610602
-4.854598707,-13.21609579,1.284803704
-5.972985078,-13.19029489,1.06814705
-4.861439458,-13.22045909,0.77026531
-5.981395039,-13.19783083,0.538667869
-4.871034902,-13.22944233,0.254690768
-5.999041535,-13.22387373,0.00988413
-4.423530684,-13.47919128,-0.395768685
-3.765237988,-10.19980215,-0.597783203
-2.846799877,-7.69815828,-0.751434605
-2.293993586,-6.19763702,-0.849976484
-1.960821592,-5.289004412,-0.936556091
-1.53944548,-4.143974594,-0.903174722
-1.278328697,-3.439980896,-0.893384839
-4.968788785,-10.87668459,3.654981048
-4.25639212,-11.55900114,3.487666604
-5.358601185,-11.74028377,3.404929822
-4.907273523,-13.29580649,3.439949867
-8.975831678,-19.68081349,4.849769037
-8.235331466,-22.28772076,4.83759128
-8.985878416,-19.70284342,4.019028706
-8.269103868,-22.36111531,3.949431941
-9.120210375,-20.00015922,3.24711583
-4.936924652,-13.32885663,1.821331996
-10.32746958,-22.6476175,2.753289502
-4.901354661,-13.21794724,1.286439494
-10.32127162,-22.60788808,1.833337412
-4.89780643,-13.19424924,0.769610076
-10.31814087,-22.58225097,0.922979545
-4.919610786,-13.23599159,0.255106213
-9.072060911,-19.83584751,0.014846956
-4.456368954,-13.4399391,-0.395015759
-3.81812948,-10.24621228,-0.601186867
-2.875628067,-7.703382379,-0.752802174
-2.312996889,-6.19056965,-0.849976483
-1.976347321,-5.281115772,-0.936228504
-1.567631983,-4.180514453,-0.912182474
-1.296724965,-3.456966544,-0.898825075
-5.003734795,-10.86486417,3.656150254
-4.298875021,-11.56482819,3.493387698
-5.375194008,-11.68162554,3.392684642
-4.952791278,-13.29343761,3.443252202
-8.981139728,-19.53349755,4.820234695
-8.30572476,-22.26786008,4.838788144
-8.950994565,-19.46793392,3.976694624
-8.292815783,-22.21548714,3.928185986
-9.110868147,-19.81838386,3.222126702
-4.969456794,-13.29135046,1.818281669
-10.40105501,-22.62485869,2.754389088
-4.945374537,-13.21217443,1.287348227
-9.128869289,-19.83473146,1.610717878
-4.950875588,-13.21282145,0.771575777
-10.39030036,-22.5568442,0.923239601
-4.959843936,-13.21990004,0.255088152
-9.140828915,-19.8251753,0.014859889
-4.50107376,-13.43663034,-0.395322514
-3.847437338,-10.22884295,-0.600857492
-2.912591112,-7.72993529,-0.756266694
-2.32812853,-6.173236332,-0.848573271
-1.989751612,-5.267644673,-0.934918214
-1.587386584,-4.194011974,-0.916185881
-1.311797089,-3.464784851,-0.901900019
-5.030198431,-10.83471536,3.651181131
-4.340080952,-11.56689904,3.498018977
-5.3975805,-11.63613402,3.384266081
-4.983289617,-13.25089266,3.43617594
-8.920385424,-19.24557312,4.755915086
-8.299771181,-22.04510649,4.795894733
-8.965611758,-19.34314836,3.956804793
-8.313973292,-22.06530935,3.906123207
-9.227366693,-19.91061376,3.241708974
-5.016164359,-13.29181711,1.820442336
-10.45704383,-22.56398471,2.750870983
-4.99714828,-13.22675148,1.290256337
-9.192196267,-19.81205869,1.611159191
-4.993508228,-13.20317385,0.771903364
-9.204421909,-19.82209386,0.812459779
-5.017374851,-13.24950321,0.255955191
-9.220576209,-19.83784651,0.01489052
-4.535547039,-13.40287401,-0.394736898
-3.880572787,-10.22165827,-0.601131971
-2.935584519,-7.719101669,-0.756084363
-2.347762479,-6.167918238,-0.848828378
-2.001334645,-5.249532389,-0.932788898
-1.602343975,-4.194613776,-0.917386915
-1.328316656,-3.476173331,-0.905921066
-5.058956227,-10.80970427,3.647965583
-4.397697708,-11.61201716,3.515727041
-5.437759316,-11.62915501,3.387072269
-5.019436099,-13.22373081,3.433109639
-8.964517761,-19.18629145,4.748039643
-8.374675366,-22.03877532,4.800084226
-9.014508403,-19.2932809,3.952242891
-8.374265315,-22.02033268,3.90269117
-9.232300231,-19.76210892,3.222126703
-5.072807323,-13.31807718,1.826161761
-10.53168901,-22.54350202,2.752300064
-5.041961649,-13.22252434,1.291346745
-9.262653507,-19.80454298,1.612851367
-5.040400957,-13.20458351,0.772886185
-9.263073787,-19.78923764,0.812274051
-5.069422637,-13.26393378,0.256533207
-9.280121459,-19.80674725,0.014888478
-4.502280807,-13.17134412,-0.388322932
-3.912628697,-10.21156907,-0.601241762
-2.956397848,-7.702621226,-0.755354981
-2.3723651,-6.175500373,-0.850869479
-2.024515331,-5.261781627,-0.93606471
-1.621901548,-4.207047201,-0.921190166
-1.34596718,-3.490212873,-0.91065171
-5.086383745,-10.78202411,3.643873366
-4.438455409,-11.61195145,3.519813534
-5.478358796,-11.62291253,3.390133563
-5.055462904,-13.19647202,3.430043337
-8.963884246,-19.03246185,4.716754834
-8.375932548,-21.84005881,4.76237785
-8.968504555,-19.04227143,3.90644149
-8.387696192,-21.85361887,3.877686309
-9.241889241,-19.62539658,3.204444389
-5.1236081,-13.32837501,1.829720516
-10.62747965,-22.56773648,2.7592266
-5.090015151,-13.22651156,1.293255167
-9.271911193,-19.66688062,1.603949532
-5.089144314,-13.21048821,0.774141996
-9.316493451,-19.74536204,0.81164248
-5.115849018,-13.26324422,0.25682223
-9.347249976,-19.79174729,0.014898688
-4.774939927,-13.83022409,-0.408178312
-3.95618285,-10.23118146,-0.603108341
-2.977857083,-7.687943586,-0.754807931
-2.397394986,-6.183913991,-0.853038076
-2.038863576,-5.250947529,-0.9352458
-1.62449912,-4.175571888,-0.91538521
-1.348211583,-3.464335752,-0.904974905
-5.088638176,-10.70159458,3.62195054
-4.475098495,-11.60097317,3.520630834
-5.516065895,-11.61041709,3.391409102
-5.093472412,-13.17455509,3.428392288
-8.903805939,-18.75541115,4.654841823
-8.426274881,-21.77130843,4.753001323
-9.007908556,-18.97469866,3.898229879
-8.433679323,-21.7735038,3.868044182
-9.243514719,-19.47362125,3.184277754
-5.176672446,-13.34403475,1.834041971
-10.69112634,-22.52335343,2.757797282
-5.142467022,-13.24146735,1.296254114
-9.262860851,-19.49241914,1.592031345
-5.131820424,-13.20039633,0.774469642
-10.74830117,-22.60000724,0.930335176
-5.162681223,-13.26332654,0.257129313
-9.426408739,-19.80180163,0.014927957
-4.761726569,-13.65599458,-0.403465432
-3.994812265,-10.23760012,-0.604206259
-2.998891485,-7.672278773,-0.754169743
-2.420691842,-6.187613946,-0.854568902
-2.070438792,-5.284163512,-0.942288805
-1.636943881,-4.169656337,-0.915185057
-1.358833681,-3.460183178,-0.904974905
-1.118887822,-2.84698546,-0.869001577
-5.02744354,-11.59773764,3.714554059
-4.013007298,-11.57319256,3.342272982
-5.396900854,-12.45003328,3.43309384
-4.843545086,-13.91815239,3.426662274
-8.853386061,-20.41105891,4.755441955
-7.862915723,-22.54500498,4.626914283
-8.94426149,-20.61268414,3.943397399
-7.887496369,-22.5610155,3.727690542
-8.957375173,-20.62417244,3.09970286
-4.666893197,-13.32655484,1.674221638
-10.76489498,-22.50030916,2.759006541
-5.191060842,-13.24602654,1.298253373
-10.82785247,-22.60655795,1.849081144
-5.182504577,-13.21061712,0.775998501
-10.81888245,-22.56962868,0.930446636
-5.203348431,-13.24742564,0.257129313
-9.507446856,-19.81516458,0.014959949
-4.785339335,-13.58946484,-0.401931656
-4.01705663,-10.20206892,-0.602833803
-3.026800241,-7.674158588,-0.755263786
-2.441484617,-6.184770617,-0.85520673
-2.082650872,-5.267695314,-0.940487076
-1.647563457,-4.159149178,-0.913984023
-1.370516766,-3.458707892,-0.905684498
-1.086129109,-2.738918611,-0.837028871
-5.06261696,-11.58138002,3.714272247
-4.057103667,-11.58541027,3.34938024
-5.441284449,-12.4476307,3.437018211
-4.883316012,-13.89495632,3.424624031
-8.919533478,-18.49476096,4.60364906
-8.533833237,-21.6535564,4.738637079
-8.991336606,-18.64364738,3.841480056
-8.512824958,-21.58368315,3.843529746
-9.220602466,-19.1215915,3.135907154
-5.271935546,-13.34615282,1.83874454
-10.85546034,-22.51194176,2.764503758
-5.241196309,-13.25411659,1.300616102
-10.91753438,-22.61544291,1.85253881
-5.227052348,-13.20486804,0.776599078
-9.247429819,-19.14049537,0.790244353
-5.251334175,-13.24998918,0.257490577
-9.324395994,-19.28175681,0.014578769
-4.901357887,-13.78380737,-0.408122522
-4.050917748,-10.19619258,-0.603218133
-3.058062636,-7.684267057,-0.757178407
-2.46338393,-6.184622721,-0.856227281
-2.100264122,-5.264946063,-0.94114225
-1.659588547,-4.15225582,-0.913583662
-1.372825381,-3.433736538,-0.900244262
-1.170639932,-2.925804466,-0.895235608
-5.118634429,-11.61232397,3.729215131
-4.097131161,-11.58564252,3.353065477
-5.473191192,-12.41668495,3.433093841
-4.926573554,-13.88174557,3.425076791
-8.945093099,-18.4032456,4.587678356
-8.552792614,-21.50799141,4.712501637
-8.970696202,-18.45591921,3.808451931
-8.574260097,-21.54554891,3.841405198
-9.255440506,-19.04427712,3.127869825
-5.317262838,-13.34097296,1.840269822
-10.95923184,-22.55004771,2.773299257
-5.28552537,-13.24722381,1.301524952
-10.98599383,-22.58005003,1.852391706
-5.284576328,-13.23142503,0.779110759
-9.308295343,-19.11652614,0.79043014
-5.297899466,-13.24866973,0.25777957
-9.348459008,-19.18114489,0.014524315
-5.092928422,-14.18454257,-0.420448465
-4.081065774,-10.18093626,-0.603053445
-3.079396849,-7.669304258,-0.756631356
-2.477538499,-6.165072189,-0.854568901
-2.114933654,-5.254817144,-0.940487076
-1.674151755,-4.151688041,-0.914584542
-1.376447595,-3.412388036,-0.895750131
-1.20913695,-2.995343387,-0.917643797
-5.161640037,-11.61322365,3.73457192
-4.143038033,-11.60209138,3.361488806
-5.511259222,-12.39983481,3.433093841
-4.974067771,-13.88031876,3.428474016
-8.951717159,-18.27406516,4.562300603
-8.60341259,-21.44345569,4.704122654
-8.971046786,-18.31352616,3.784729999
-8.595106416,-21.40653438,3.821303413
-9.299899815,-18.9873612,3.123193482
-5.365198941,-13.34208199,1.842684645
-11.01830714,-22.49578966,2.770770353
-5.330976953,-13.2429559,1.302706317
-11.05872922,-22.55340171,1.852980242
-5.328876708,-13.22441114,0.779656796
-11.09482658,-22.60904911,0.936241937
-5.347125076,-13.25368017,0.258195015
-9.325701056,-18.98632455,0.01439839
-5.084979323,-14.02694569,-0.416237575
-4.12351148,-10.19613684,-0.604700381
-3.106276481,-7.668127173,-0.757451932
-2.487497183,-6.135382538,-0.851507309
-2.134014217,-5.255616239,-0.941797425
-1.691311497,-4.157422472,-0.91698655
-1.386543867,-3.407249215,-0.895513619
-1.195100965,-2.93460236,-0.90015448
-5.196852288,-11.59645776,3.734289872
-4.181885315,-11.59840183,3.364121186
-5.548086122,-12.38021359,3.432358079
-5.033198236,-13.91078887,3.439798183
-8.952882991,-18.13539499,4.53451673
-8.614010224,-21.28071379,4.674196831
-8.963645552,-18.15719736,3.758088628
-8.631849096,-21.30874276,3.808555887
-9.189528819,-18.61721409,3.066931704
-5.407970948,-13.33015462,1.84332015
-11.07671263,-22.44048955,2.768131774
-5.371205785,-13.22561537,1.302615361
-11.16321496,-22.59089497,1.858865724
-5.373935787,-13.21909991,0.78031203
-11.16901045,-22.58475626,0.936650586
-5.39605367,-13.25758565,0.258592428
-9.363056672,-18.91550222,0.014366398
-5.055154373,-13.81227178,-0.410325569
-4.158168103,-10.19175883,-0.605194444
-3.13242446,-7.665014002,-0.758090119
-2.505933127,-6.126804243,-0.851379697
-2.152745776,-5.255434342,-0.942943978
-1.707034217,-4.159465081,-0.918587947
-1.402156468,-3.415563004,-0.898825075
-5.107759863,-10.25089569,3.500643883
-4.724877028,-11.60753586,3.548418759
-5.755128275,-11.55971742,3.406970683
-5.343185056,-13.09836384,3.433581467
-6.918365811,-13.90653039,3.482435148
-8.667773586,-21.22606261,4.668012251
-8.969384658,-18.02925878,3.737286369
-8.677776184,-21.23467223,3.800057458
-9.224132189,-18.54376014,3.059478739
-5.447714614,-13.31074699,1.842938918
-11.20349624,-22.52298137,2.782534401
-5.416286488,-13.22013222,1.303705887
-11.24580686,-22.58332266,1.861072884
-5.425453678,-13.2293425,0.781895487
-11.2774719,-22.62909108,0.939919722
-5.429486544,-13.22339602,0.258249225
-9.870090841,-19.78690566,0.01505116
-4.994267298,-13.51727502,-0.40201534
-4.194736897,-10.19188061,-0.605962987
-3.160100522,-7.665495099,-0.759093026
-2.531905769,-6.136507276,-0.853803518
-2.171496227,-5.255187451,-0.944090476
-1.725033886,-4.166881969,-0.921390377
-1.414487399,-3.415733683,-0.90000775
-5.141330892,-10.23945012,3.502105389
-4.772527115,-11.62235758,3.557409047
-5.799237752,-11.55929169,3.412072841
-5.385564032,-13.08730197,3.434996484
-6.960123157,-13.88349475,3.481997649
-8.682841179,-21.07796217,4.641278852
-8.964287789,-17.88124087,3.712287226
-8.741378243,-21.20430034,3.799403714
-9.245072892,-18.44373998,3.047641735
-5.495339017,-13.31047326,1.845226663
-11.31574647,-22.57469366,2.793198627
-5.462144969,-13.21633838,1.304978207
-9.907423708,-19.74360782,1.629551516
-5.470213891,-13.22278457,0.782496064
-9.334540482,-18.58739048,0.773229909
-5.479594944,-13.22976937,0.25870079
-9.301993273,-18.50566525,0.01409821
-5.041303272,-13.51687531,-0.402461511
-4.227899703,-10.18357417,-0.606237525
-3.178632335,-7.643810768,-0.757907789
-2.546147089,-6.117722487,-0.852272693
-2.191783573,-5.258516698,-0.945892204
-1.739697299,-4.166090904,-0.922391202
-1.425709131,-3.41317097,-0.900480773
-5.161063759,-10.20058856,3.494213255
-4.814789453,-11.62366128,3.562312839
-5.853431995,-11.57855101,3.423042481
-5.426062407,-13.07161509,3.435232516
-7.004004475,-13.86468893,3.482654015
-8.704601238,-20.94806865,4.618535152
-8.953491427,-17.72377138,3.685280838
-8.736691078,-21.00976996,3.769332693
-9.226683734,-18.26694266,3.023091059
-5.564367744,-13.36131014,1.854632038
-11.41273472,-22.59487492,2.800015251
-5.513012686,-13.22433706,1.307431774
-9.962099958,-19.70154935,1.6285951
-5.516138599,-13.21884005,0.783260493
-10.00832799,-19.77754081,0.824013245
-5.527095112,-13.22950168,0.259025933
-9.339746559,-18.43957312,0.014069622
-5.011959481,-13.31330614,-0.39685629
-4.26297946,-10.17976561,-0.606786484
-3.207846078,-7.647797786,-0.759275358
-2.560681008,-6.099822572,-0.85086948
-2.210200108,-5.257223818,-0.946874906
-1.749808393,-4.154413022,-0.920990014
-1.43655112,-3.40967635,-0.900717343
-5.203193326,-10.20600635,3.501520785
-4.856362807,-11.62303981,3.566671845
-5.899021371,-11.58035455,3.428910198
-5.465764988,-13.05401069,3.434996485
-7.055360838,-13.860528,3.487029474
-8.771100591,-20.92668547,4.619732012
-8.91193111,-17.50783146,3.646048348
-8.758750243,-20.88188363,3.751192139
-9.216720917,-18.10894732,3.001609305
-5.604180724,-13.34143241,1.854250687
-11.47433753,-22.54469725,2.798146051
-5.569771307,-13.24591737,1.311248617
-9.966355134,-19.56070674,1.61947249
-5.562477751,-13.21565978,0.784079521
-10.07667503,-19.76187803,0.824644816
-5.574257269,-13.22814619,0.259333016
-10.10179038,-19.79320385,0.015126035
-5.05775095,-13.31094926,-0.397246701
-4.299240887,-10.17859621,-0.607500131
-3.228190002,-7.63058306,-0.758545976
-2.58711732,-6.110204207,-0.853420797
-2.223237748,-5.243152507,-0.945564616
-1.758714945,-4.140007473,-0.918988311
-1.451565012,-3.415983906,-0.903555717
-5.234480703,-10.18999534,3.501520786
-4.899472102,-11.62581944,3.572120426
-5.945118244,-11.5828469,3.435032787
-5.505032271,-13.03538998,3.434524891
-7.118335486,-13.87875581,3.497093121
-8.803210988,-20.82386359,4.602973572
-8.942718114,-17.43579078,3.636742156
-8.800863811,-20.80312426,3.741876648
-9.229801416,-17.99784157,2.987872581
-5.647406969,-13.32965647,1.85501327
-11.55524143,-22.5323836,2.801004689
-5.612715555,-13.23426819,1.31179388
-11.57902655,-22.55451847,1.870268927
-5.633040774,-13.26930453,0.788283854
-10.12127241,-19.69975922,0.8233446
-5.623809407,-13.23214689,0.259748461
-10.19951007,-19.83415083,0.015181169
-5.103575341,-13.30843635,-0.397637111
-4.331230879,-10.16719613,-0.607609923
-3.250021965,-7.616979287,-0.758181314
-2.607019372,-6.104975003,-0.853803518
-2.233106635,-5.221794499,-0.942943978
-1.774494694,-4.141797061,-0.92058965
-1.46471739,-3.417765872,-0.905211473
-5.260883028,-10.16454605,3.498305473
-4.938504011,-11.61870309,3.574572323
-5.985511814,-11.57400033,3.437838973
-5.543474687,-13.01486319,3.433581468
-7.179696192,-13.89325979,3.506281534
-8.831698909,-20.7138294,4.584619155
-8.973148119,-17.36372654,3.627435964
-8.860000049,-20.76513575,3.739915417
-9.24455721,-17.89122124,2.97486661
-5.699188215,-13.33780695,1.858572025
-11.65716686,-22.560404,2.808920425
-5.650941564,-13.21149187,1.311248616
-11.67061955,-22.56229325,1.873873816
-5.680404788,-13.26756404,0.789212076
-9.925318491,-19.1734159,0.802615177
-5.665953955,-13.21850687,0.259820702
-10.26123302,-19.80454243,0.015182531
-5.20318842,-13.44467007,-0.402182651
-4.358855974,-10.14560353,-0.60711586
-3.289120043,-7.643562257,-0.761828165
-2.630052402,-6.106968311,-0.855206731
-2.252241731,-5.222165809,-0.944254268
-1.7891363,-4.14083085,-0.921590533
-1.477123348,-3.417715657,-0.906394149
-5.285409621,-10.13563898,3.493920955
-4.981708772,-11.62118386,3.580020903
-6.025906969,-11.56501573,3.440645162
-5.59258305,-13.01922379,3.439242241
-7.230397838,-13.88674697,3.510219495
-8.881658404,-20.65513086,4.577636828
-8.971435164,-17.23059215,3.605356257
-8.890518981,-20.6608281,3.726023958
-9.222658208,-17.71535777,2.950315932
-5.744006759,-13.3293686,1.859843035
-11.77451862,-22.61710454,2.820464414
-5.708014162,-13.23249814,1.315065458
-11.78725763,-22.61747452,1.881451473
-5.724248873,-13.25740866,0.789648919
-9.988715996,-19.1517354,0.802986634
-5.715605902,-13.2221697,0.260236176
-10.03826959,-19.22955563,0.014765275
-5.262957498,-13.47613158,-0.403604877
-3.61299348,-9.242249811,-0.640496907
-2.804365843,-7.166354324,-0.780461656
-2.307364503,-5.890849412,-0.876202051
-1.938241648,-4.94692964,-0.936553707
-1.532801614,-3.912737261,-0.902114121
-1.299853357,-3.315030642,-0.905112989
-5.335161517,-10.15493277,3.506197842
-5.031083396,-11.63764007,3.589828489
-6.065404388,-11.5541784,3.442941131
-5.630181585,-12.99665484,3.437826989
-7.29835161,-13.91288822,3.522470871
-8.890018209,-20.5010242,4.549506299
-8.92788326,-17.01927294,3.56685404
-8.968394116,-20.66694004,3.732070967
-9.191037149,-17.52315529,2.922988871
-5.799500814,-13.34534273,1.864545722
-11.83138614,-22.55710901,2.817496102
-5.74620028,-13.20944498,1.314520195
-11.85890965,-22.5856209,1.881819234
-5.765692163,-13.24161551,0.789758115
-11.87655416,-22.60197043,0.949169946
-5.776919943,-13.25223249,0.261175455
-10.01901735,-19.04997872,0.01465092
-5.308308484,-13.47015124,-0.403911633
-3.647190356,-9.245974876,-0.641527471
-2.828896444,-7.164194857,-0.781167971
-2.327610968,-5.889270134,-0.877025132
-1.950874897,-4.934549079,-0.935338547
-1.548033317,-3.916199827,-0.904003114
-1.316079274,-3.326347556,-0.909301049
-5.340343597,-10.08949379,3.489244136
-5.055997283,-11.59745404,3.582200288
-6.113480749,-11.55944888,3.450084153
-5.671584394,-12.98288194,3.438770647
-7.334618286,-13.87835412,3.519407909
-8.956405838,-20.48173403,4.551302066
-8.968111333,-16.96920222,3.562109512
-8.992602733,-20.5498519,3.715891407
-9.224418223,-17.45639082,2.916558961
-5.842008765,-13.331121,1.865054149
-11.95208087,-22.61825044,2.829699558
-10.87678948,-22.5206252,2.517017579
-5.23722809,-13.21885929,1.162730895
-11.94726496,-22.58527412,1.884835586
-5.809902622,-13.23209215,0.790249495
-11.94958031,-22.57249136,0.949467194
-5.827206257,-13.25641385,0.26160896
-10.0296587,-18.9290197,0.014581491
-5.360319977,-13.48073945,-0.404720348
-3.676277484,-9.236595861,-0.641656277
-2.854913142,-7.16564874,-0.782277869
-2.344567292,-5.879341307,-0.876613621
-1.964545179,-4.924881586,-0.934644152
-1.562576141,-3.917789231,-0.905472368
-1.318732289,-3.303391878,-0.904127545
-5.364972686,-10.06124835,3.485151918
-5.098136507,-11.596862,3.58683157
-6.164374422,-11.56965202,3.45875782
-5.712563847,-12.96808891,3.439478038
-7.376244778,-13.8540637,3.51897041
-9.010171509,-18.54752995,4.407421878
-8.55777376,-21.51792052,4.487465641
-8.957749541,-16.82444622,3.537475388
-9.0217529,-20.44544699,3.701999949
-9.227723922,-17.33369841,2.900776366
-5.895709599,-13.34216721,1.869121331
-12.02468532,-22.58761531,2.830469172
-10.98807086,-22.57392746,2.526730752
-5.289966893,-13.2332701,1.165420495
-12.02165915,-22.55819709,1.885644899
-5.87310798,-13.26533474,0.793307214
-9.939778607,-18.63751504,0.785229158
-5.869874712,-13.24304413,0.261699291
-10.05566345,-18.83817324,0.014535206
-5.409469532,-13.48371293,-0.405305964
-3.712778764,-9.245646955,-0.643073317
-2.882820779,-7.171625775,-0.783892261
-2.364442611,-5.876715113,-0.877299551
-1.986999078,-4.937103164,-0.938116121
-1.587363245,-3.944723336,-0.912818581
-1.330309105,-3.302926541,-0.905112988
-5.40622399,-10.06411772,3.491874845
-5.152017435,-11.62250869,3.599635838
-6.202127104,-11.55494543,3.46003336
-5.755872724,-12.95849466,3.441600916
-7.424248657,-13.84168685,3.521595637
-8.99479242,-18.37224542,4.37230616
-8.589748621,-21.40683057,4.469773075
-8.991664633,-16.76396001,3.530541223
-8.904367753,-20.01296032,3.628620194
-9.22615605,-17.20330535,2.883678417
-5.927330104,-13.30317826,1.866198081
-12.08922903,-22.54185995,2.829369824
-11.06253339,-22.55083022,2.527932382
-5.331286923,-13.21882786,1.165583455
-12.12147227,-22.57832246,1.89042686
-11.09567201,-22.61039843,1.616358305
-5.329237938,-13.19382754,0.643170227
-12.13846412,-22.59293799,0.953442168
-5.909252607,-13.22223513,0.261645081
-10.23560144,-19.0344641,0.01471082
-5.453061604,-13.47261338,-0.405473274
-3.740002506,-9.231438287,-0.64288008
-2.909296051,-7.173811348,-0.785103069
-2.383578645,-5.872187156,-0.877711063
-2.001395664,-4.929159156,-0.937768925
-1.58952804,-3.915374772,-0.907151489
-1.336057934,-3.288055077,-0.902156717
-5.43206838,-10.0382331,3.488659534
-5.191184197,-11.61455391,3.602087736
-6.261002412,-11.57924056,3.473043862
-5.794807181,-12.93900156,3.441129323
-7.468534817,-13.82227881,3.522470871
-8.868084864,-17.97360207,4.28389006
-8.622596606,-21.29938685,4.45284154
-8.978553751,-16.61692336,3.50535969
-8.866388004,-19.76411635,3.588416622
-9.277480576,-17.17230927,2.883240203
-8.864580811,-19.73241607,2.77190711
-12.1748658,-22.53527133,2.8332179
-11.17443875,-22.6033015,2.537645555
-5.37782646,-13.2171795,1.166887603
-12.18546606,-22.53137716,1.889617548
-11.16764201,-22.58161732,1.616742517
-5.384393032,-13.21349538,0.644931187
-12.22436973,-22.58635084,0.954742384
-5.953486714,-13.21224781,0.261807652
-10.15629708,-18.74885885,0.014514105
-8.903686487,-19.73922565,-0.395369617
-4.572399384,-10.12462226,-0.610794003
-3.444030081,-7.614389329,-0.765110295
-2.75428651,-6.084629983,-0.859033707
-2.354092607,-5.193302088,-0.946711171
-1.849658718,-4.073297383,-0.913984024
-1.542594892,-3.396140209,-0.908049849
-5.465127956,-10.02571827,3.490121037
-5.231536451,-11.60909899,3.60535693
-6.306672838,-11.57865839,3.478656235
-5.835676244,-12.92381938,3.441836949
-7.508573487,-13.79501561,3.521377007
-9.010697454,-18.1223156,4.32590323
-8.668600094,-21.22557098,4.4429486
-8.98107711,-16.5003502,3.486564676
-9.005261451,-18.10503954,3.548763868
-8.68127764,-21.21112116,3.574662532
-9.250675984,-16.99778644,2.858689527
-9.319173233,-20.57522843,2.894303817
-12.25582357,-22.51963929,2.83596639
-11.23042127,-22.54219523,2.53464148
-5.428190764,-13.2245914,1.169006668
-12.29461127,-22.56745044,1.895797358
-11.24354559,-22.56064615,1.617703224
-5.438959286,-13.23110078,0.646601905
-12.30795668,-22.57506332,0.955856872
-11.25949386,-22.56304679,0.695549131
-5.441891855,-13.23429307,0.124127476
-10.80006926,-19.79205505,0.015347255
-8.969997857,-19.72455914,-0.395625172
-4.587303579,-10.07510557,-0.608653004
-3.469853409,-7.609223947,-0.765657346
-2.775823374,-6.082467561,-0.859926703
-2.371654505,-5.189644459,-0.947366287
-1.865001502,-4.073839677,-0.915385212
-1.551388642,-3.387857838,-0.907103742
-5.506907625,-10.02902321,3.497136268
-5.271904047,-11.60350608,3.608626125
-6.347281817,-11.56857978,3.481462421
-5.880935163,-12.91823718,3.445139047
-7.553675395,-13.77704814,3.522689502
-8.915558693,-17.7938251,4.254
-8.679078787,-21.06634912,4.41517331
-8.962172072,-16.34598605,3.459740679
-8.984853559,-17.92587496,3.519032356
-8.756115341,-21.20813166,3.578669156
-9.257127644,-16.88604903,2.844660501
-9.318525294,-18.57621012,2.864951397
-5.506518671,-13.31753223,1.708721044
-9.212942633,-16.80545159,2.119910996
-11.32006149,-22.54853789,2.539247727
-5.480176369,-13.23550173,1.17145177
-12.37386519,-22.54798488,1.89734231
-10.35111722,-22.6254279,1.360563664
-12.38196846,-22.54595478,0.956228387
-9.055828338,-19.77229316,0.392892124
-10.87567252,-19.7859952,0.015368356
-9.040053928,-19.71784947,-0.396045057
-4.631937734,-10.09093116,-0.610464628
-3.493182027,-7.598542842,-0.765657346
-2.79654376,-6.078428151,-0.860564533
-2.385500988,-5.177863747,-0.946547377
-1.878312217,-4.069877598,-0.915785574
-1.57969383,-3.42189744,-0.917511191
-5.537650588,-10.01208094,3.497136268
-5.322303434,-11.61964482,3.618706224
-6.394436517,-11.57020872,3.487840118
-5.923782805,-12.9071993,3.447026128
-7.598737437,-13.75893405,3.524002234
-8.956884675,-17.74020003,4.24772959
-8.714658715,-20.96981738,4.400524397
-8.964745405,-16.23234691,3.441493076
-8.984301788,-17.78832806,3.497425194
-8.769478779,-21.05712174,3.557710733
-9.17977203,-16.62374866,2.805204133
-9.352232966,-18.50156125,2.8578501
-5.563787719,-13.33998629,1.713784101
-9.244278252,-16.74056284,2.115293305
-11.42871003,-22.59183286,2.548059678
-5.529206602,-13.2388593,1.173244798
-12.45649198,-22.53435513,1.899402246
-10.02454985,-19.80927499,1.424800779
-5.527751055,-13.21591093,0.647504975
-12.47187962,-22.54546151,0.957825792
-9.107644951,-19.72535481,0.3925128
-10.9377772,-19.75516013,0.015370398
-9.102182699,-19.6936526,-0.396118072
-4.657423171,-10.06489267,-0.609750981
-3.514802726,-7.584176108,-0.765292685
-2.818100146,-6.076118073,-0.86145747
-2.398881949,-5.165152558,-0.945564616
-1.889963052,-4.062319511,-0.915385212
-1.573376803,-3.380917737,-0.907813336
-5.565083052,-9.989196539,3.495090159
-5.36155731,-11.61112279,3.621158119
-6.442601345,-11.57334756,3.494728032
-5.956008993,-12.87308948,3.442780372
-7.638067606,-13.73044043,3.522689503
-8.958057772,-17.60804492,4.222647001
-8.774777216,-20.93302317,4.39843156
-8.943285856,-16.07674351,3.414304296
-9.014708828,-17.71328049,3.488090869
-8.794242977,-20.93537947,3.541683521
-9.204281905,-16.54795768,2.797166803
-9.358595598,-18.37391605,2.842555071
-5.610463898,-13.33658466,1.715550187
-9.263706032,-16.65479556,2.108037273
-11.50248618,-22.56552803,2.549061036
-5.584500154,-13.2567369,1.176341974
-12.5600135,-22.55789892,1.90462564
-10.08028988,-19.76864665,1.42409637
-5.570600656,-13.20441219,0.647775878
-12.58428006,-22.58478538,0.961132121
-9.194698519,-19.7544275,0.393650772
-11.0387591,-19.79399984,0.015426894
-9.174381913,-19.69101196,-0.396629212
-4.695455738,-10.06593982,-0.610684211
-3.543533422,-7.585086127,-0.766477923
-2.840928848,-6.07642853,-0.862733129
-2.413462267,-5.1550886,-0.945073237
-1.909489312,-4.071581682,-0.9187881
-1.587868337,-3.384871166,-0.910178628
-5.596171129,-9.972909888,3.49538246
-5.402433005,-11.60595892,3.624699589
-6.488481351,-11.57208162,3.500340406
-5.992188743,-12.84771083,3.44089329
-7.677770857,-13.70268615,3.521595638
-8.949583174,-17.45864671,4.193383983
-8.819460078,-20.85988761,4.388729353
-9.029092456,-16.11441868,3.42817239
-8.957102836,-17.46730711,3.4450494
-8.838772611,-20.86190203,3.533824052
-9.221161157,-16.45922847,2.786937217
-9.328077426,-18.17590047,2.816334988
-5.658335568,-13.33576402,1.717669609
-9.179706595,-16.38523549,2.077473205
-11.58802655,-22.56199438,2.552665925
-5.622416877,-13.23312049,1.175771439
-9.200276962,-16.40516107,1.38750969
-9.920159699,-19.30800804,1.393098736
-5.632596774,-13.23781755,0.650259365
-12.65204255,-22.54345634,0.96102066
-9.262480828,-19.74151309,0.393957855
-11.12049369,-19.79753194,0.015456163
-9.231774969,-19.65643786,-0.39650142
-4.720792155,-10.03973987,-0.609970564
-3.571878712,-7.584990341,-0.767571966
-2.859980636,-6.068581097,-0.862860741
-2.435581728,-5.161041913,-0.94753008
-1.921553065,-4.064818606,-0.918587947
-1.600322327,-3.384375518,-0.911361303
-5.659679543,-10.01397267,3.51584378
-5.447823493,-11.61023575,3.631237982
-6.535840221,-11.57316863,3.506718102
-6.029096244,-12.82398996,3.439478038
-7.71929439,-13.67821657,3.521377006
-8.93085244,-17.29122146,4.159731677
-8.88803684,-20.84356943,4.391012449
-9.126811132,-16.17226909,3.446419995
-8.997086029,-17.41349463,3.43986356
-8.842945204,-20.69476553,3.510091628
-9.165630508,-16.24304,2.755079964
-9.320549163,-18.0248832,2.797352815
-5.70898918,-13.34116548,1.720613244
-9.215278579,-16.33102584,2.074174922
-11.65170363,-22.51573356,2.551464296
-5.662203827,-13.21397619,1.175608479
-9.235359417,-16.34993955,1.385229097
-11.69655741,-22.59467751,1.63281777
-5.67318345,-13.22047442,0.650259365
-12.73983194,-22.53759186,0.962432337
-11.73767217,-22.64505079,0.703545213
-5.682119795,-13.23747415,0.124960197
-11.19201224,-19.78246862,0.015471138
-9.3356736,-19.7201984,-0.398363439
-4.754992625,-10.03242775,-0.610409732
-3.593851196,-7.571297384,-0.767298441
-2.884968932,-6.073216619,-0.86477423
-2.457760432,-5.166907795,-0.949986982
-1.934014732,-4.058904123,-0.918587947
-1.615714346,-3.389975087,-0.914199735
-1.18900071,-2.756300423,-0.886558321
-5.763564273,-11.08163309,3.670571553
-4.963966812,-11.60026803,3.442827928
-6.588525085,-11.5833196,3.515901986
-6.065081653,-12.79840685,3.437591191
-7.756882786,-13.64683501,3.519407909
-8.936910242,-17.17352203,4.137993149
-8.87592376,-20.63943591,4.353724264
-9.021395944,-15.87151723,3.388210099
-9.049103319,-17.38318954,3.439345
-8.889188734,-20.62761352,3.503311004
-9.202710911,-16.19248309,2.751280289
-9.362072832,-17.96984686,2.793256067
-5.75382736,-13.33270562,1.721790675
-9.233906368,-16.24737177,2.067138474
-11.75752612,-22.55046,2.55947516
-5.714973225,-13.22490444,1.178135001
-9.229258143,-16.22271112,1.376842247
-11.78520495,-22.59585057,1.635507609
-5.685149968,-13.13699719,0.64700829
-12.80446682,-22.4905852,0.962098014
-9.981609743,-19.11339132,0.594770849
-5.72508891,-13.22548552,0.125012247
-11.29671269,-19.82536704,0.015531718
-10.3043637,-19.72135283,-0.199619848
-8.630981359,-15.13235375,-0.626611342
-4.904435571,-8.588298269,-0.717426965
-3.77312529,-6.596797062,-0.831756722
-3.234149996,-5.647836882,-0.955141377
-2.512892884,-4.381201068,-0.932171432
-2.058597458,-3.579581429,-0.92202716
-1.730455699,-3.000626643,-0.912407392
-5.716260952,-9.970761281,3.51292077
-5.541319397,-11.62348995,3.64594936
-6.627876344,-11.56976341,3.517942848
-6.10808812,-12.78763173,3.439714071
-7.801622988,-13.62805364,3.52072064
-8.946417171,-17.06374503,4.118136219
-8.890375826,-20.49952218,4.329943916
-9.144294897,-15.97346509,3.415946524
-9.161405864,-17.46786639,3.461643574
-8.954007521,-20.60386833,3.503927315
-9.240551121,-16.14356771,2.747773151
-9.372040061,-17.85508123,2.779872681
-5.800648308,-13.32864826,1.723556879
-9.243221263,-16.14823125,2.05812339
-11.86413319,-22.5856302,2.567586397
-5.759899685,-13.21735941,1.179031574
-9.259648007,-16.16057219,1.373973117
-11.86329216,-22.5763721,1.636724497
-5.763385964,-13.2064744,0.651297858
-12.9464778,-22.57863149,0.967558992
-9.995053471,-18.99686753,0.592096329
-5.768837268,-13.21519096,0.125081642
-11.36843386,-19.80969583,0.015546694
-10.40580859,-19.76751268,-0.200409282
-8.661437403,-15.07807401,-0.625461032
-4.9337443,-8.57839847,-0.717861065
-3.806247093,-6.607585786,-0.834585439
-3.25245058,-5.639602271,-0.955431829
-2.530257371,-4.380283371,-0.933623402
-2.061254261,-3.558891854,-0.918322493
-1.738196434,-2.992794822,-0.911643201
-5.740129513,-9.941581839,3.508828552
-5.578203424,-11.60903648,3.646766658
-6.673487728,-11.56696299,3.523300114
-6.148555548,-12.77145909,3.440421697
-7.839984752,-13.59813741,3.519189278
-9.006034593,-17.05005195,4.121480753
-8.945358645,-20.45416081,4.326139232
-9.166739245,-15.89933822,3.406092921
-9.111419437,-17.24373518,3.422750826
-8.936669739,-20.39259199,3.472643698
-9.230746461,-16.01229614,2.730236988
-9.3040546,-17.5941777,2.743683602
-5.852686889,-13.33625085,1.726853731
-9.233647434,-16.01732696,2.045040171
-11.91382276,-22.51218958,2.563380456
-10.903384,-22.56022791,2.28652902
-9.266317822,-16.05780224,1.367646085
-11.94510603,-22.56368314,1.638453747
-5.818361454,-13.22164782,0.652923396
-9.289637508,-16.08653602,0.690572214
-11.98819699,-22.61643278,0.70605433
-5.819828388,-13.22122555,0.125307171
-11.4431665,-19.79896778,0.015565752
-9.997432237,-18.85119706,-0.19142944
-8.684135055,-15.01077402,-0.623771598
-4.976036101,-8.590839711,-0.720176289
-3.831489151,-6.604475921,-0.835673403
-3.275203611,-5.639008756,-0.957029056
-2.549618105,-4.382699976,-0.935801355
-2.047576499,-3.51039934,-0.907426406
-1.571595135,-2.933282501,-0.91018777
-5.807195586,-10.91884426,3.634201276
-5.091069736,-11.60091017,3.45677923
-6.724002155,-11.572352,3.531208459
-6.194072316,-12.76564937,3.443959591
-7.892445844,-13.59258494,3.524002234
-8.964584173,-16.84622985,4.078840068
-8.991430893,-20.38889372,4.318148873
-9.190295327,-15.82777699,3.396786492
-9.161966185,-17.21135288,3.421886321
-8.975628866,-20.31175859,3.463551368
-9.235125536,-15.90690277,2.717084865
-9.347275849,-17.54544124,2.740542675
-5.893172273,-13.31732446,1.726736071
-9.23134226,-15.90038758,2.033716004
-12.01185475,-22.52996915,2.569589113
-10.99609607,-22.57501727,2.291436389
-9.22684291,-15.87667962,1.354624377
-12.02883267,-22.55422647,1.640439059
-5.862949139,-13.21286624,0.65337496
-9.288204884,-15.97071208,0.686820161
-12.05187684,-22.56896704,0.705723465
-5.879429849,-13.2462653,0.125714851
-11.49681219,-19.75166755,0.015556223
-10.0146957,-18.7445865,-0.190657947
-8.717568927,-14.9624734,-0.622872939
-5.003876625,-8.578117567,-0.72039331
-3.855243699,-6.598697939,-0.836434972
-3.295985145,-5.634912173,-0.958045435
-2.559572264,-4.368917709,-0.934530881
-2.059819588,-3.506625563,-0.90808015
-1.581961395,-2.930993632,-0.91097926
-5.837041851,-10.89421088,3.631945835
-5.131321942,-11.59582302,3.459938039
-6.774123876,-11.57670459,3.538861696
-6.235342025,-12.75095168,3.445139048
-7.93263194,-13.56578102,3.523345868
-8.944147658,-16.68419516,4.046232989
-8.972047531,-18.33034558,4.155085673
-9.186698136,-15.71038813,3.377626696
-9.131869942,-17.02865746,3.391117689
-8.957074361,-20.10272022,3.432576026
-9.185516864,-15.71025638,2.688296298
-9.260990688,-17.25569344,2.699710393
-9.872116451,-20.12917716,2.872823971
-9.194795155,-15.72612501,2.015025895
-12.11811187,-22.56225725,2.577499842
-11.08329557,-22.57782784,2.295162157
-9.224126166,-15.76050344,1.34712039
-12.13481206,-22.58578666,1.645434524
-11.08982289,-22.57120417,1.375196843
-9.323522809,-15.91885991,0.685817075
-9.954944284,-18.50528436,0.579605878
-5.925760072,-13.24094326,0.125836296
-11.58213488,-19.75857538,0.015589577
-10.00865108,-18.59578282,-0.189455841
-8.739156965,-14.89428512,-0.621147504
-5.030675966,-8.563585615,-0.72046567
-3.884039608,-6.601404574,-0.838284563
-3.319785288,-5.63585601,-0.959933054
-2.563469624,-4.344952352,-0.931082455
-1.887374906,-3.477835349,-0.92219648
-1.242153685,-2.762228743,-0.894489196
-5.87362742,-10.88216242,3.633919465
-5.170411216,-11.58795429,3.462307202
-6.817953945,-11.57002912,3.54319853
-6.277009536,-12.73699146,3.446554299
-7.980651247,-13.55231066,3.526189964
-8.94742968,-16.56805059,4.024703792
-9.023474052,-18.29306695,4.152890795
-9.158520685,-15.55250461,3.349707881
-9.185006283,-17.00229529,3.391463397
-9.169517154,-18.57687736,3.431851432
-9.169926452,-15.57373846,2.669737082
-9.197045057,-17.01108618,2.665842795
-9.96371076,-20.15926312,2.881466646
-9.220305297,-15.65929888,2.01007847
-12.2028996,-22.5538514,2.580804323
-11.15869301,-22.55621608,2.296434359
-9.242052417,-15.6805805,1.342706308
-12.20309719,-22.54669609,1.645306493
-11.18117142,-22.58181583,1.377926974
-9.262657671,-15.70426063,0.677792799
-12.24728223,-22.60005591,0.709032178
-5.969644704,-13.22999296,0.125905691
-9.280913105,-15.7220398,0.012427145
-10.0427778,-18.52279559,-0.189025242
-8.31317936,-18.39378165,-0.563117069
-4.182846783,-9.246815029,-0.655053671
-3.227083404,-7.127329459,-0.793477761
-2.641990807,-5.830219518,-0.886490944
-2.19512418,-4.842746876,-0.937248101
-1.762947343,-3.889846636,-0.916806547
-1.579992213,-2.88485383,-0.899634887
-5.911568798,-10.87251937,3.636738764
-5.213458323,-11.58875379,3.467308747
-6.860820063,-11.56153045,3.547025149
-6.318217986,-12.72202634,3.447733757
-8.03314113,-13.54622675,3.531002919
-8.915969993,-16.38933286,3.98791628
-8.977487168,-18.05996971,4.106207003
-9.20619157,-15.52433342,3.349707881
-9.224414182,-16.95067724,3.386796352
-9.175060319,-18.44530975,3.412730024
-9.207571804,-15.52851316,2.666814545
-9.204653324,-16.90101308,2.653005863
-9.892846308,-19.86224195,2.843336839
-9.216596528,-15.54373356,1.998864215
-12.28108284,-22.53290597,2.582706903
-11.25494507,-22.57624109,2.301977829
-9.234632634,-15.5586742,1.334687219
-12.30517357,-22.56960704,1.649725581
-11.26109842,-22.56885012,1.379237323
-9.273541025,-15.61304895,0.675080907
-12.31991336,-22.56851835,0.709225178
-5.999025955,-13.18704055,0.125671489
-9.269318172,-15.59292082,0.012347505
-10.80749887,-19.78811221,-0.20227522
-8.3679143,-18.3645509,-0.56300549
-4.216579252,-9.245742282,-0.655890998
-3.248108306,-7.115585141,-0.79327594
-2.662334999,-5.827492446,-0.887314026
-2.211608647,-4.839572437,-0.937942495
-1.786656591,-3.910208935,-0.922893374
-1.580448532,-2.864790629,-0.894886066
-5.909128924,-9.881090289,3.519059096
-5.78700883,-11.58494137,3.666654108
-6.900721906,-11.54789741,3.54932112
-6.358088561,-12.70431968,3.448205348
-8.073662149,-13.5198422,3.530565421
-8.938013053,-16.31044696,3.975374986
-8.931473242,-17.8299579,4.06012117
-9.207903684,-15.41919906,3.333102505
-9.169373709,-16.72710338,3.347730515
-9.193587432,-18.34122638,3.398675249
-9.197860313,-15.40421325,2.650301199
-9.225490675,-16.81624028,2.644129301
-9.76953135,-19.46478869,2.790717858
-9.189335582,-15.38993665,1.982702772
-12.35590125,-22.50558932,2.583908533
-11.32862619,-22.55050434,2.302886681
-9.301253973,-15.5619427,1.337409363
-12.39357398,-22.56673759,1.652287388
-11.32894013,-22.53151929,1.37907353
-9.274205528,-15.50562411,0.671663117
-12.39150279,-22.53499457,0.709363044
-9.086278655,-19.81194088,0.189071042
-9.271400603,-15.48804641,0.012286925
-10.8884018,-19.79165792,-0.202651996
-8.431726909,-18.3551426,-0.56350748
-4.249510274,-9.242736761,-0.656599519
-3.271586883,-7.10920175,-0.793679582
-2.676885963,-5.812099467,-0.886216584
-2.226033755,-4.831869787,-0.937768924
-1.901353352,-3.427953807,-0.913571449
-5.936455798,-9.857998459,3.517305286
-5.847615269,-11.61697922,3.68245506
-6.941601961,-11.53578475,3.552127305
-6.399222898,-12.68909285,3.449384806
-8.128679722,-13.51758679,3.536472241
-8.928465368,-16.17507614,3.949038081
-8.958313986,-17.74736247,4.047552694
-9.162441111,-15.23668189,3.299709361
-9.194939406,-16.65233255,3.338396189
