x,y,z
1.970057473,2.590035659,0.26610937
2.329778742,2.639670727,0.225949446
2.605383964,3.421580546,0.194386949
3.035323635,3.435435392,0.126448438
2.625875127,3.447741791,0.037593884
3.016545944,3.41274175,-0.040862322
2.61675284,3.431413621,-0.120387082
3.688977703,4.169676777,-0.252127763
2.120683004,2.778993228,-0.225629595
3.701489365,4.179847834,-0.458532296
2.165939287,2.836244564,-0.361928361
3.939364015,4.443305358,-0.706293887
3.875658442,5.071776015,-0.884021585
3.683993914,4.150449033,-0.867555409
2.99678075,3.92080534,-0.869892646
2.9520763,3.32165221,-0.863482111
2.473324938,3.236298811,-0.874408394
2.479311844,2.785488484,-0.869084509
2.072974461,2.710682393,-0.867420499
2.100204513,2.355836134,-0.863227358
1.765430807,2.309364445,-0.858517018
2.323617578,2.622544546,1.029643403
1.987984827,2.616278022,0.896572519
2.305457157,2.602047879,0.879550928
1.981736269,2.602016078,0.76052422
2.293082035,2.586898068,0.738890044
1.964700119,2.576007761,0.627803823
2.285766161,2.577919448,0.60465544
1.969091285,2.577751035,0.505932774
2.284696295,2.57499218,0.474555814
1.974962225,2.582632651,0.385498378
2.27966942,2.567701337,0.345569228
1.965272085,2.567359666,0.264397793
2.359733842,2.657134609,0.228062923
2.616476551,3.414363976,0.1944321
3.049170039,3.429842509,0.126586304
2.627923929,3.428558352,0.037472447
3.047602777,3.42663404,-0.041140418
2.64491712,3.446366364,-0.121195791
3.701088601,4.157593222,-0.252082523
2.150472814,2.800175022,-0.227883962
3.710317239,4.164007676,-0.458041183
2.167961928,2.82090897,-0.360818463
3.990655904,4.473435677,-0.713026112
3.867046432,5.028453743,-0.878534202
3.695393589,4.137653141,-0.867246478
3.01299858,3.917057078,-0.871107807
2.959635757,3.309652808,-0.862719114
2.476089239,3.219395467,-0.871889739
2.487196055,2.777143584,-0.868857535
2.084236579,2.708150073,-0.868652232
2.083591308,2.3228147,-0.853465963
1.784788149,2.319899808,-0.864465145
2.338037085,2.622565102,1.032462822
1.997760011,2.612465675,0.897362219
2.317945129,2.600028249,0.881267841
1.993857724,2.601335258,0.762109643
2.301658528,2.58058051,0.739099075
1.975582511,2.573861865,0.628755052
2.300221353,2.578244518,0.606383977
1.981205862,2.577181221,0.5070115
2.297203658,2.573143773,0.475511754
1.995595006,2.593087713,0.387971046
2.289524882,2.562921344,0.345869635
1.986520715,2.578688525,0.26619088
2.378514,2.661788844,0.229087631
2.622669063,3.400783227,0.194116031
3.071007978,3.433137257,0.127055035
2.639651718,3.422063475,0.037489796
3.076105658,3.437387172,-0.041382633
2.665865095,3.451684773,-0.121669871
3.714492912,4.146963159,-0.252127763
2.184073422,2.825937469,-0.23052479
3.70111969,4.128116618,-0.45534008
2.18634476,2.826836178,-0.362432884
4.005688115,4.462649175,-0.713262325
3.883061532,5.017349603,-0.878671354
3.700806077,4.118213082,-0.865547508
3.032235639,3.917139874,-0.873190988
2.970432198,3.301286982,-0.862909849
2.486552917,3.212556866,-0.872099607
2.500268212,2.774564198,-0.870446355
2.093128701,2.702509143,-0.868898635
2.102340779,2.329300238,-0.858214726
1.783677371,2.303796779,-0.860499708
2.350556581,2.620379153,1.034436335
2.011649448,2.613969721,0.89999454
2.326558276,2.593626319,0.881513114
2.009562744,2.6052322,0.765053876
2.316096507,2.580785206,0.741189293
1.993672182,2.580996801,0.6319892
2.312726243,2.576305896,0.607594009
1.990916845,2.573435343,0.507473851
2.312369121,2.574190338,0.47701394
2.006581287,2.590878841,0.388559762
2.310014515,2.569944828,0.347772216
1.998086594,2.577307929,0.266679906
2.393341168,2.661900106,0.229728083
2.636765065,3.397456304,0.194386949
3.092894548,3.436330294,0.127523766
2.648298335,3.411579302,0.037463775
3.101357449,3.444281837,-0.041579991
2.684416873,3.453750125,-0.122032401
3.729204689,4.137773727,-0.252263483
2.212951093,2.845217961,-0.232650322
3.705756131,4.107862095,-0.454357884
2.194396099,2.819330092,-0.362331973
4.034668751,4.467288442,-0.715978866
3.89661033,5.003068452,-0.878259842
3.706134137,4.098778357,-0.863848536
3.046054534,3.910149412,-0.873711754
2.989769955,3.302346159,-0.865580254
2.493393236,3.20105637,-0.871050149
2.495030982,2.751729314,-0.865679891
2.104984965,2.700661342,-0.870376772
2.111422573,2.324981657,-0.859006217
1.781305823,2.286209241,-0.855967787
2.365655956,2.620989909,1.037537683
2.022613131,2.611599351,0.901310729
2.34554688,2.59871051,0.885682756
2.02172689,2.604440544,0.766639241
2.32924628,2.579473634,0.742861441
2.012426695,2.588819957,0.635413607
2.325900834,2.575045887,0.608976838
2.00305172,2.572772611,0.508552578
2.324905525,2.572228385,0.477969879
2.018183301,2.589409942,0.389266226
2.315885971,2.560631967,0.347471809
2.012728215,2.579809664,0.267576449
2.418234111,2.673045957,0.231329198
2.6416418,3.382264885,0.193980565
3.111474711,3.435716366,0.127854646
2.674758062,3.423926737,0.0376893
3.115938327,3.439197022,-0.041633818
2.695616205,3.446285574,-0.122060282
3.744565915,4.129273411,-0.252444443
2.221054556,2.837629548,-0.232585919
3.693556872,4.069168844,-0.451329372
2.217145385,2.830598901,-0.36465268
4.046351632,4.452684553,-0.715624517
3.913163345,4.992649355,-0.878534202
3.728664799,4.098350917,-0.86616531
3.064720134,3.909311251,-0.875621309
2.992615798,3.285175688,-0.863482112
2.493551294,3.181079749,-0.867691903
2.475236837,2.713124535,-0.855919989
2.100699461,2.678176394,-0.865203268
2.124401518,2.3249015,-0.861380626
1.804880894,2.301865469,-0.863898663
2.382071117,2.622953027,1.041202891
2.034174173,2.609947219,0.902890132
2.363936778,2.602984857,0.889607126
2.02910801,2.597458005,0.766412743
2.356219769,2.593305053,0.748923054
2.024593839,2.588046355,0.636745293
2.339752031,2.574458063,0.610532578
2.016419605,2.57361492,0.509939575
2.344116683,2.577542572,0.48029145
2.027956553,2.585550095,0.389619472
2.328418592,2.558666062,0.348172759
2.02063347,2.57362239,0.267576449
2.351185456,2.582959603,0.224156196
2.671142805,3.398492419,0.195380335
3.119980971,3.423937861,0.12777193
2.694520055,3.42749647,0.037819413
3.126474912,3.42962144,-0.041633818
2.70926783,3.441926581,-0.122199726
3.759236675,4.11997973,-0.252580163
2.227897412,2.828450325,-0.232392681
3.679139116,4.028381418,-0.448055318
2.225203223,2.823002044,-0.364551769
4.066693866,4.447577913,-0.716805583
3.933982777,4.987620091,-0.879768853
3.743222251,4.089078701,-0.866628676
3.080969035,3.905302735,-0.876836469
3.001353895,3.274531521,-0.863100583
2.504510091,3.174950133,-0.868111699
2.47959733,2.701213161,-0.854558142
2.106503971,2.668676075,-0.864217824
2.12956555,2.316242848,-0.860589137
1.797676484,2.278247833,-0.857100752
2.397873496,2.624131799,1.04458617
2.049316389,2.612803461,0.90604894
2.379759117,2.604308351,0.892550406
2.037669203,2.591986449,0.76663924
2.36482475,2.586785846,0.749132088
2.037382441,2.587993869,0.638267238
2.352956855,2.57308258,0.611915408
2.03225884,2.577503173,0.511942948
2.356694782,2.57545466,0.481247389
2.035879351,2.579316224,0.389619472
2.342304705,2.558114783,0.349073981
2.036552135,2.577577588,0.268635982
2.348314541,2.563959275,0.223131488
2.692711778,3.404384903,0.196193104
3.136550545,3.420980933,0.128020079
2.712467837,3.428624241,0.037923505
3.138333998,3.421487193,-0.041651759
2.717952873,3.431247746,-0.122116057
3.775236854,4.112106636,-0.252806363
2.231605454,2.815345459,-0.231877399
3.678667659,4.003132285,-0.446500115
2.2381817,2.821618285,-0.365258085
3.957272125,4.985613174,-0.881552283
3.741693347,4.062314272,-0.86338517
3.09538512,3.898917324,-0.877530863
3.017375427,3.271802679,-0.864817256
2.513630822,3.166485575,-0.867901771
2.486551312,2.692162159,-0.854104193
2.117092714,2.665236482,-0.865203268
2.107185995,2.277835577,-0.848717141
1.792729905,2.25770066,-0.851435866
2.407861047,2.618881661,1.045432075
2.062104344,2.61256205,0.908154773
2.392986951,2.602704128,0.894512646
2.049842081,2.591069779,0.768224604
2.376059946,2.583117234,0.750177196
2.049580146,2.587117782,0.639598927
2.366175018,2.571650186,0.613298293
2.043841741,2.575900309,0.512867595
2.366598056,2.570398751,0.481657054
2.061694667,2.595608523,0.393034074
2.352164404,2.553112068,0.349374389
2.054995327,2.584579694,0.270021551
2.358874705,2.55967827,0.223387654
2.707498614,3.401579078,0.196509173
3.168720801,3.434853343,0.128902406
2.726088008,3.424197963,0.037966875
3.156276099,3.419925991,-0.041750438
2.730959183,3.426019783,-0.122227607
3.789868506,4.102706321,-0.252942112
2.264501343,2.838910946,-0.234389406
3.679429529,3.979387188,-0.445108645
2.259241056,2.830289261,-0.36727606
3.977494389,4.979641008,-0.882649725
3.766227168,4.06385973,-0.86616531
3.101800019,3.882477466,-0.875968505
3.012709363,3.246699511,-0.86062097
2.517231347,3.151119884,-0.865802854
2.513362449,2.70449616,-0.860459478
2.11557732,2.646616181,-0.861261554
2.135851593,2.294659684,-0.857423294
1.80623359,2.260431592,-0.85455158
2.42109654,2.617116524,1.047687519
2.076110265,2.613777497,0.910787151
2.406885671,2.601755127,0.896720104
2.068094781,2.597723017,0.772074823
2.384637944,2.576533067,0.750386229
2.063627642,2.588493933,0.641501387
2.384090492,2.57522036,0.615891155
2.579232144,2.587895391,0.404148561
2.568638337,2.575018044,0.268305824
3.39498064,3.401274785,0.178651986
2.955046447,3.425878692,0.081735866
3.42613411,3.429970766,0.003299929
2.968764713,3.439111984,-0.082951312
3.641991954,4.215131357,-0.306275392
3.667860634,3.942540589,-0.442243836
2.273521141,2.830325575,-0.368184166
3.997097144,4.972818794,-0.883610015
3.782046298,4.055898565,-0.866937606
3.120484336,3.88138593,-0.87787806
3.010597468,3.224526091,-0.857187624
2.513410288,3.126617639,-0.861185223
2.521647962,2.696772542,-0.860459479
2.12672447,2.643888983,-0.862493343
2.127057084,2.271199668,-0.851091553
2.636633878,2.625730059,1.137358576
2.256845281,2.616267714,0.978301163
2.617684992,2.608589152,0.975023807
2.253413215,2.60832842,0.836636182
2.602895347,2.595390508,0.82411943
2.229609342,2.578864287,0.694077065
2.608802584,2.60128071,0.683736722
2.584101637,2.576920864,0.539091389
2.591382247,2.58418116,0.404808234
2.569626187,2.963141275,0.214475228
3.387696454,3.373215481,0.177723256
2.966198376,3.417551627,0.081753934
3.460033772,3.442719286,0.003322391
2.977990575,3.428478113,-0.082914797
3.652286062,4.200924056,-0.306055779
3.676533485,3.927631434,-0.441834591
2.283444762,2.824884606,-0.368385987
4.011088889,4.958992447,-0.883335655
3.791091723,4.040673798,-0.866165309
3.124944517,3.86260649,-0.875794935
3.011738549,3.205973594,-0.854708011
2.519916242,3.115091209,-0.860135765
2.539919863,2.699663368,-0.863864096
2.110434797,2.60721943,-0.852639087
2.124753965,2.254835039,-0.847398031
2.652153613,2.625028852,1.14057389
2.271799036,2.61732444,0.981297848
2.636667553,2.611432535,0.979105533
2.26012982,2.599935952,0.83616447
2.615004191,2.591513765,0.825432102
2.241369601,2.57644749,0.695274047
2.62096123,2.597417359,0.684831599
2.605345152,2.582212121,0.541867951
2.611299351,2.58811329,0.406677257
2.582264115,2.557103342,0.268085137
2.661917189,3.281861542,0.191000422
3.224158986,3.431039696,0.12986745
2.741738183,3.379548909,0.037750022
3.230768553,3.436630937,-0.042315602
2.778762202,3.420912803,-0.122952667
4.006827261,4.258266014,-0.264795211
3.773942595,4.309042701,-0.524417858
3.922806379,4.476333298,-0.765527371
3.439533781,3.920725154,-0.865962256
3.311681411,3.256482961,-0.857212929
2.783663297,3.168856113,-0.861739183
2.71703335,2.665597084,-0.849895049
2.343374917,2.667079071,-0.864291276
2.307584566,2.258452374,-0.850510412
1.961865234,2.231690662,-0.844133923
2.675193305,2.631633988,1.147004635
2.281717086,2.612516383,0.982115147
2.650179614,2.608757489,0.981146396
2.279612024,2.606155996,0.840410112
2.636846264,2.597173537,0.82980756
2.255072215,2.576194905,0.697069636
2.6275166,2.587984331,0.68446664
2.628432487,2.589157486,0.408106488
2.5745833,2.932311918,0.213383197
3.224519784,3.171573203,0.16813868
3.01087178,3.426325167,0.082404206
3.350578557,3.293146888,0.003197827
3.021420618,3.435668106,-0.083535475
3.435355268,3.373642432,-0.173188006
3.673375581,4.173188329,-0.305671508
3.693022804,3.897040875,-0.440934232
3.23445665,3.168710114,-0.495572518
3.943736707,4.472460414,-0.766930584
3.44240661,3.899800091,-0.863669205
3.321656654,3.246307369,-0.857212928
2.789478835,3.155896456,-0.860538149
2.735680022,2.667469083,-0.853163887
2.362486797,2.672252046,-0.868312325
2.299945987,2.237202596,-0.845161255
1.850248129,2.258125535,-0.862199214
2.48273594,2.618539309,1.060374841
2.13118069,2.616527981,0.920790003
2.473984267,2.609309055,0.909719582
2.11768001,2.594029874,0.77864278
2.446361514,2.579002932,0.759792199
2.121334319,2.594898399,0.649491628
2.443308543,2.5750645,0.622978325
2.652698674,2.597073895,0.410635183
2.625709812,2.568408173,0.270954326
2.701659514,3.289398068,0.192400192
3.260997517,3.427849697,0.130501628
2.784639152,3.389705826,0.038053619
3.262135281,3.427607907,-0.042450167
2.844785125,3.45861088,-0.124932615
3.60702883,3.516872918,-0.365442076
3.820792756,4.308902916,-0.527244132
4.059710316,4.925687192,-0.884021585
3.815150748,3.992039661,-0.863230735
3.15159259,3.823043102,-0.873364557
3.058084512,3.195849607,-0.859476559
2.567136646,3.114400254,-0.866432518
2.557920816,2.669140588,-0.86159435
2.162709068,2.62207791,-0.86397148
2.160779414,2.251189177,-0.853465962
1.860827815,2.256877996,-0.86389866
2.504665228,2.625488546,1.066295494
2.14103286,2.612215754,0.921579706
2.487331193,2.607318158,0.911681765
2.129338069,2.592036259,0.780001646
2.469116075,2.58704887,0.764390639
2.134274905,2.5944434,0.651013573
2.466160218,2.583229546,0.626781162
2.128605994,2.583597772,0.522114004
2.470990561,2.586571432,0.493128325
2.186839838,2.651449139,0.40751678
2.154252744,2.609339782,0.276704841
2.594517295,2.918698237,0.213547005
3.233168729,3.141282979,0.167581436
3.041142943,3.418244373,0.082657093
3.353502392,3.25580827,0.003181491
3.067709693,3.445440358,-0.084229169
3.448817898,3.3455419,-0.172828545
3.682969183,4.132679983,-0.304353948
3.625680356,3.513425018,-0.366237918
4.010346203,4.494816829,-0.551495771
3.984976431,4.463715492,-0.769609515
3.453780537,3.864629041,-0.860557129
3.346465527,3.230646154,-0.858483402
2.813364036,3.143831892,-0.861939336
2.758322164,2.656726318,-0.855125177
2.354862538,2.630918838,-0.859560634
2.326181168,2.235108296,-0.849746222
2.012483762,2.247219312,-0.856977652
2.728880345,2.635467652,1.159573705
2.319096477,2.606500916,0.987836238
2.701193952,2.610460789,0.991095604
2.322897058,2.606830544,0.847486256
2.677473412,2.589073917,0.835058134
2.304122008,2.583853128,0.704850307
2.673842173,2.585562605,0.690305868
2.309293486,2.588287887,0.574617313
2.670259554,2.582368692,0.548736256
2.184182701,2.631736898,0.405515106
2.686602953,2.595906519,0.275589154
3.238477598,3.127183974,0.167358544
3.056283745,3.414112815,0.08278353
3.354839824,3.237172028,0.003173322
3.082268634,3.440480664,-0.0843387
3.354746757,3.234369607,-0.167616372
3.69363082,4.11913124,-0.30418926
3.304550422,3.182637727,-0.332812021
4.051392747,4.512874148,-0.555233758
3.238407421,3.11468859,-0.491764615
3.998652083,4.451468678,-0.769609514
3.469578666,3.858415861,-0.86153989
3.347846151,3.212194135,-0.856305448
2.812506373,3.123536335,-0.8587366
2.757999882,2.640152843,-0.852510084
2.357721296,2.617905937,-0.857668365
2.316942408,2.21260037,-0.84388768
1.991679538,2.210306104,-0.845227013
2.749371641,2.639003336,1.164835243
2.342484725,2.616578776,0.994374513
2.714768817,2.6075199,0.993136469
2.330883722,2.599691585,0.847486254
2.693142954,2.588284981,0.837464613
2.320545545,2.586253519,0.707443882
2.321836702,2.58632997,0.575761363
2.810492815,2.701348905,0.431194406
2.662904515,2.557257761,0.272352115
3.119720413,2.994066681,0.160745931
3.054029754,3.390605077,0.082440333
3.359703526,3.222019111,0.003168558
3.100842534,3.43991989,-0.084557762
3.316309223,3.177737497,-0.165207987
3.71227064,4.11445177,-0.304683352
3.690572882,3.799952078,-0.435040913
2.363195654,2.815907019,-0.37282558
4.081941087,4.860805961,-0.879082923
3.82898838,3.933394347,-0.858133822
3.205014207,3.81574359,-0.878398884
3.096276116,3.176706919,-0.861956173
2.608268115,3.105615036,-0.870630354
2.600746371,2.664301797,-0.867722661
2.171785438,2.584254669,-0.858058937
2.18140722,2.231206654,-0.853465962
1.866715329,2.222032297,-0.857100752
2.553462555,2.627783881,1.07672726
2.193430301,2.626461279,0.933688448
2.530815649,2.604477775,0.918794687
2.181237359,2.605939205,0.790193325
2.518724939,2.590858907,0.772333434
2.175090372,2.595004799,0.656150123
2.186234436,2.601560091,0.40292469
2.20191582,2.617622387,0.279720478
2.849281362,3.383607921,0.199940865
3.271414752,3.355366093,0.129260854
2.838910038,3.370575175,0.038227102
3.329087339,3.413088385,-0.042773116
2.949522338,3.497564211,-0.127637637
3.28788606,3.12792863,-0.329194496
4.089723124,4.49972128,-0.556692521
4.086604973,4.836154379,-0.876887981
3.837581352,3.918099396,-0.857361584
3.217977102,3.807397226,-0.878746081
3.110131378,3.171397952,-0.863100583
2.586228876,3.060259935,-0.860135764
2.609590703,2.657005037,-0.867949636
2.16456741,2.200436496,-0.844232134
1.877238522,2.220689495,-0.858800259
2.563524503,2.621995696,1.077573165
2.201477781,2.619719471,0.933688447
2.542860556,2.600860274,0.920266326
2.190476841,2.60072497,0.790646261
2.536918807,2.593605681,0.775468757
2.196966372,2.604829432,0.6603355
2.193564485,2.594082192,0.402806941
2.22152687,2.624547887,0.281187557
2.880960508,3.400001889,0.201430937
3.280293355,3.34388649,0.129205704
2.856995675,3.371003769,0.03833119
3.354251553,3.417846222,-0.042961508
2.960885592,3.489261073,-0.127665517
3.6346165,4.280342569,-0.362437275
3.700543373,3.763732952,-0.433485738
3.71011964,4.366169702,-0.581083226
4.091798095,4.812274913,-0.874830191
3.853051295,3.909825913,-0.858133822
3.221348599,3.787753985,-0.876489271
3.114330699,3.156251159,-0.861574702
2.617140432,3.077635248,-0.867272108
2.40273489,2.619006088,-0.865237381
2.364016118,2.216315015,-0.853567057
2.036656528,2.218810433,-0.855611332
2.80973582,2.647691709,1.180035028
2.383324889,2.613392624,1.001457808
2.766792017,2.608957288,1.003340783
2.373062021,2.598219767,0.854090686
2.75091786,2.595530966,0.847965757
2.36805001,2.590824674,0.714626063
2.196141683,2.583767934,0.528894689
2.213096043,2.600953863,0.404926362
2.234738488,2.623790226,0.281839573
2.899803874,3.40102966,0.202017938
3.329158127,3.372936192,0.13072221
2.879003971,3.375918333,0.038487324
3.366126595,3.408962513,-0.042979449
3.185779341,3.731024103,-0.136868146
4.003385581,4.050652484,-0.257918594
3.648379605,4.269930119,-0.362501678
3.709970046,3.750236508,-0.433240167
3.771988911,4.411479182,-0.588650692
3.988053901,4.661209742,-0.849588101
3.229112192,3.773363924,-0.875447739
3.130223759,3.152951415,-0.863291318
2.629112909,3.072563074,-0.868111698
2.61966456,2.634727355,-0.865906867
2.34533494,2.185319804,-0.844397121
2.053896594,2.223858148,-0.859983632
2.8248256,2.645596096,1.182958039
2.40369148,2.619538232,1.006633995
2.783249265,2.608390997,1.006402078
2.390227907,2.600944439,0.857392902
2.77879771,2.60576792,0.854091387
2.381293892,2.589317436,0.716222096
2.374108383,2.580148027,0.580827639
2.225586333,2.599432366,0.405750576
2.242777574,2.616921775,0.281839573
2.899816898,3.379986193,0.201295471
3.349351911,3.372636619,0.131108225
2.922558354,3.405771601,0.03892971
3.385731436,3.407841055,-0.043096069
3.292970812,3.832687723,-0.1409675
4.003114419,4.025600775,-0.257104274
3.649751824,4.24509632,-0.361342278
3.716536683,3.733892203,-0.432667218
3.840010296,4.463237045,-0.597126293
3.971314797,4.612919779,-0.843003218
3.236175257,3.758215321,-0.87423252
3.111438858,3.114858565,-0.855471009
2.639164869,3.065223395,-0.868321566
2.618781218,2.617727266,-0.862956199
2.209660649,2.564751371,-0.860522514
2.218181611,2.213808723,-0.857159426
1.894468419,2.199684263,-0.857383994
2.605150582,2.615966123,1.084903584
2.241181588,2.617667545,0.940269278
2.58721312,2.597954163,0.927624578
2.239057947,2.609282092,0.799479016
2.582078901,2.591622326,0.781948438
2.23620348,2.602369212,0.664901337
2.390854356,2.579691126,0.450693865
2.882135934,2.686383507,0.435812007
2.250144753,2.609273815,0.281758063
2.905603196,3.365780446,0.200979402
3.375934158,3.378608696,0.131742389
2.964362471,3.433118732,0.039346071
3.396170561,3.397437766,-0.043096069
3.294253853,3.810467975,-0.140521315
3.987889676,3.985758585,-0.255339858
3.664717202,4.236143222,-0.361535516
3.718100864,3.712613389,-0.431521288
3.873220627,4.474000849,-0.600153315
3.954965712,4.565525894,-0.836555486
3.227698395,3.725196152,-0.868851055
3.132810111,3.117068491,-0.858713562
2.650477058,3.059329101,-0.86895123
2.210535555,2.549904856,-0.857812591
2.20510336,2.187293906,-0.849508575
1.896811523,2.18878834,-0.855401304
2.625387745,2.620160805,1.089978445
2.246683181,2.607855722,0.939216303
2.603405586,2.598222254,0.930567855
2.252781589,2.609035448,0.801517374
2.599710403,2.593357368,0.784874728
2.247387615,2.599209501,0.665852567
2.404689223,2.581413402,0.58442311
2.258406235,2.605236699,0.40881196
2.256179619,2.600099845,0.281513564
2.918536056,3.359867014,0.201160018
3.374235241,3.356251442,0.131273658
2.982095342,3.432311365,0.039441487
3.410832598,3.391232836,-0.043149896
3.469289882,3.988135622,-0.147465107
3.972458513,3.946048517,-0.253575471
3.663936905,4.209073288,-0.360182908
3.714618003,3.686446083,-0.42980241
3.879086692,4.453094671,-0.598942506
3.959841564,4.542916677,-0.834634904
3.239759103,3.716018461,-0.869024624
3.122814799,3.088115711,-0.853372865
2.639933838,3.0283361,-0.862444608
2.614696927,2.581765434,-0.856373938
2.231727003,2.558448478,-0.862986036
2.229662826,2.198124988,-0.856367994
1.906669166,2.18657306,-0.856817512
2.643631492,2.622228563,1.094207513
2.256569225,2.603137554,0.940006005
2.626506959,2.605242612,0.935963864
2.267163685,2.609464334,0.803782172
2.615293437,2.592943087,0.787173977
2.257284249,2.594524239,0.666423281
2.607891654,2.584882606,0.644412634
2.262084902,2.596104921,0.537062371
2.266388393,2.598295795,0.40881196
2.264146116,2.593165694,0.281513564
2.922256152,3.34337554,0.200708483
3.250870178,3.213763214,0.126089991
2.988662566,3.418629268,0.039389441
3.314529671,3.275323689,-0.041804265
3.609234493,4.123394428,-0.152875138
3.404458719,3.361136715,-0.216658857
3.66697009,4.186552484,-0.359216746
3.566258943,3.517560977,-0.411385826
3.918961701,4.471099468,-0.602978515
3.955472461,4.509895347,-0.830793743
3.250494881,3.705321183,-0.868851054
3.104270073,3.050996871,-0.845743233
2.648567536,3.019487737,-0.862234683
2.629556195,2.580552989,-0.858643682
2.233811773,2.545034063,-0.860768862
2.216416039,2.171697205,-0.848717143
1.897555531,2.162690615,-0.849736417
2.66942835,2.631618394,1.101538047
2.27215461,2.604926614,0.943164813
2.641391022,2.603978405,0.938416594
2.278364039,2.606163003,0.8049146
2.626022295,2.587652688,0.788010051
2.277520094,2.601621719,0.670037887
2.620721367,2.5817079,0.645622666
2.277204227,2.597325167,0.538757529
2.41211221,2.553176835,0.320519374
2.82054752,2.578615806,0.281916069
3.207751682,2.930758013,0.161526066
3.222217704,3.405416245,0.084698232
3.591373852,3.278839938,0.003310139
3.243450331,3.425220636,-0.086127704
3.491491877,3.184969438,-0.169988816
4.104046108,4.330108515,-0.328014935
3.359457663,3.061305293,-0.329700956
3.335662327,3.035468739,-0.493614148
3.251265795,2.955660304,-0.644843887
3.619634305,3.808349895,-0.872350086
3.387197212,3.074916661,-0.844326584
2.895643051,3.042568436,-0.858136083
2.829115046,2.562348171,-0.852292171
2.425748425,2.548297072,-0.85648569
2.375710059,2.146493939,-0.84337824
2.036020835,2.137759424,-0.838668534
2.903303913,2.636672696,1.19874254
2.480624491,2.62149647,1.02189016
2.891627517,2.627818912,1.030892436
2.477972236,2.614760035,0.874375638
2.88197175,2.620605787,0.87334345
2.450401071,2.583769617,0.725000254
2.861011257,2.60154617,0.717677216
2.450755254,2.582788612,0.589816258
2.853607589,2.595087004,0.569779675
2.294778035,2.598482898,0.41104913
2.429539363,2.55586958,0.321791634
2.838778754,2.579339572,0.282946036
3.206370558,2.911498083,0.161005971
3.260226684,3.424480327,0.085420759
3.590307824,3.257726656,0.003299929
3.258771285,3.420320915,-0.086255489
3.528640641,3.199078115,-0.171318819
3.264597236,2.956582538,-0.319499532
3.443015247,3.113903703,-0.50808419
3.231686756,2.919803356,-0.639180969
3.619710556,3.785106686,-0.869565655
3.406836785,3.073732995,-0.846867588
2.903608641,3.032255126,-0.857735777
2.839864278,2.556268067,-0.853163886
2.440947985,2.548561518,-0.859087553
2.380845075,2.137903204,-0.842868799
2.033917617,2.122474069,-0.835115979
2.917058786,2.632879306,1.201080952
2.493963058,2.61944858,1.024069547
2.912592124,2.630600808,1.035484378
2.490676733,2.612068604,0.876026746
2.890721961,2.612405955,0.873562257
2.467110553,2.585455861,0.727593831
2.885027494,2.607259645,0.721691708
2.462755254,2.579538935,0.590796815
2.865959215,2.590299951,0.570656517
2.46646551,2.580718391,0.457430143
2.923003897,2.641857858,0.435812008
2.301827251,2.587856052,0.283225141
3.052551932,3.428250613,0.207481538
3.232967935,3.13775778,0.124270187
3.050592564,3.425327896,0.039788453
3.358888887,3.258604435,-0.041983683
3.661668246,4.106414827,-0.153488648
3.421620543,3.316450426,-0.215799284
3.690065629,4.135499757,-0.357735303
3.40445386,3.296701299,-0.389204047
4.021572092,4.503857046,-0.612362251
3.251147068,3.144620378,-0.537988073
3.986913014,4.462219236,-0.828735952
3.285772594,3.67671605,-0.869198251
3.156237044,3.045471828,-0.852228397
2.666473729,2.984047034,-0.859086304
2.639870079,2.543403355,-0.854331168
2.238406868,2.50341463,-0.853624529
2.223101865,2.138500626,-0.843704511
1.920575681,2.148709702,-0.851152626
2.725938309,2.63829894,1.114789116
2.320384319,2.611307749,0.953167663
2.698683094,2.611919839,0.950189705
2.332052537,2.61854233,0.815332718
2.670812583,2.583772116,0.794280698
2.31247653,2.593005544,0.673272034
2.669151619,2.581443828,0.651672657
2.322074688,2.599837521,0.543688977
2.668321814,2.578929292,0.511564338
2.318621418,2.593237063,0.412462087
2.737368295,2.643999878,0.383020078
2.651875359,2.560707504,0.236580859
3.204088762,2.873754255,0.160002944
3.284646873,3.408011078,0.085511075
3.356291816,3.008046575,0.003067817
3.304684914,3.426167663,-0.086912674
3.403029472,3.047365241,-0.164309328
3.238818984,2.897262748,-0.315230856
3.436110092,3.069540206,-0.504276287
3.231824838,2.884108733,-0.635696124
3.627771677,3.747232574,-0.865962256
3.427835407,3.054733761,-0.847412077
2.916021969,3.00805069,-0.855934227
2.839449665,2.524528349,-0.848369587
2.454510467,2.531443475,-0.858377958
2.397535419,2.126462502,-0.844142371
2.067666418,2.131357429,-0.843587407
2.94101123,2.621931163,1.204296381
2.522675749,2.61725906,1.029245735
2.943830355,2.626197152,1.040841644
2.516106203,2.606525412,0.879328963
2.930719285,2.616062691,0.880781751
2.498586879,2.586478643,0.732182434
2.915640862,2.60260328,0.725341183
2.499791064,2.586369715,0.595863149
2.894344615,2.583865762,0.57314078
2.506393705,2.590485464,0.461878616
2.934710234,2.619901291,0.435152362
2.329667867,2.58701489,0.284692191
2.639558681,2.533211574,0.234787608
3.142479957,3.012710664,0.120079138
3.062847554,3.396890805,0.039675688
3.425026106,3.282212849,-0.042557817
3.213219525,3.559288545,-0.133772714
3.36036759,3.217326316,-0.210687053
3.712695231,4.109817702,-0.357477661
3.457747815,3.307439702,-0.392969213
4.099837532,4.535186873,-0.620030629
3.222994455,3.079338159,-0.530192858
4.023520831,4.447956205,-0.830656533
3.295056146,3.641880237,-0.865726282
3.1677584,3.019275365,-0.850320988
2.678830075,2.961104385,-0.857197314
2.655426362,2.527157386,-0.854331167
2.264782544,2.50184759,-0.857812589
2.246670212,2.134785937,-0.847661842
1.935654282,2.139018161,-0.85200235
2.750397273,2.629479193,1.118172395
2.349913095,2.612082445,0.958695577
2.728673417,2.608710524,0.955095167
2.356554758,2.61358783,0.818277007
2.703584289,2.583550459,0.799297205
2.33952781,2.591155208,0.676506183
2.694911332,2.574542858,0.654092665
2.345272825,2.593602054,0.545384133
2.7048749,2.582346058,0.51552465
2.350483925,2.596630696,0.415287974
2.798892456,2.670424729,0.389328634
2.65020654,2.527856648,0.235043774
3.188001243,2.824220825,0.158331212
3.306892553,3.389223932,0.085547196
3.462291365,3.064947714,0.003147457
3.334027371,3.414410302,-0.087131736
3.395464025,3.003253957,-0.163051223
3.363417195,2.971771302,-0.325576971
3.221573005,2.842541564,-0.470222693
3.261336203,2.874692036,-0.638019336
3.650005411,3.724197824,-0.865798462
3.447252459,3.034293161,-0.847593572
2.950894355,3.006884092,-0.860738303
2.846819726,2.499974412,-0.845972467
2.473400173,2.519802273,-0.859560634
2.393808349,2.097055811,-0.838283831
2.089467563,2.127552466,-0.847139905
2.983599644,2.627220051,1.215111644
2.556830544,2.620324616,1.036601424
2.981652777,2.627261921,1.04849488
2.551748809,2.611193342,0.886169192
2.97233315,2.620616922,0.88843886
2.532223548,2.589313808,0.737369587
2.949255291,2.600269716,0.729720633
2.533552731,2.589316606,0.600112305
2.926468534,2.580451766,0.576355736
2.538899057,2.592064261,0.464929003
2.948493809,2.599872738,0.434822511
2.957331059,2.605372466,0.290744351
3.068801893,3.362493883,0.205765699
3.147841758,2.980999978,0.119582832
3.107228466,3.403882135,0.039979285
3.416052909,3.233638466,-0.042198982
3.202628164,3.504088352,-0.132434157
3.371335936,3.188409891,-0.210144174
3.758047287,4.109051701,-0.359409985
3.31932702,3.136261227,-0.375043742
3.221607431,3.0404208,-0.526885813
3.321996659,3.626677071,-0.8669415
3.177648216,2.991706815,-0.848032111
2.705533386,2.953984666,-0.859925895
2.653852679,2.494806933,-0.848883779
2.285984392,2.494334636,-0.860029765
2.257616811,2.118980028,-0.846870352
1.946799034,2.124979496,-0.851152626
2.776245368,2.621775887,1.122119534
2.378239114,2.611166039,0.963697061
2.760840163,2.607227811,0.960736508
2.381740624,2.609150258,0.821447737
2.755653537,2.601147251,0.809957257
2.364655901,2.586895956,0.679169615
2.737879109,2.583646484,0.660661218
2.375153524,2.594467493,0.548620369
2.742290109,2.586090452,0.519621517
2.374423492,2.590944742,0.416700903
2.834051346,2.670943324,0.391932165
2.961558632,2.593002437,0.290376501
3.070995049,3.344233408,0.205223849
3.170075111,2.98366049,0.120079138
3.142684762,3.421582203,0.040300229
3.369149373,3.169698114,-0.041499253
3.207273701,3.487624324,-0.132183177
3.367999801,3.165736513,-0.209329826
3.799017045,4.128344089,-0.362115201
3.304231542,3.102866488,-0.372260772
3.220780503,3.021012083,-0.525232262
3.341116463,3.625158367,-0.869024624
3.192545873,2.987309549,-0.849558049
2.713920778,2.944951408,-0.859716027
2.655801165,2.481334284,-0.847067984
2.286398956,2.479472111,-0.857319839
2.267633945,2.115333534,-0.848189464
1.95720934,2.123227734,-0.852852074
2.799666318,2.627691373,1.128322232
2.399926445,2.618793519,0.969224915
2.799221577,2.62727391,0.971283252
2.393028414,2.605417489,0.822580106
2.770752692,2.599371654,0.812047472
2.390525338,2.599138908,0.684306166
2.753695166,2.582646476,0.662562665
2.389796305,2.594435771,0.550161447
2.753102221,2.580374867,0.520167792
2.388419822,2.590218328,0.417760613
2.855303491,2.674479225,0.39373461
3.107680455,3.363411416,0.206984853
3.172643776,2.96777491,0.119830989
3.155203285,3.414127526,0.040326251
3.460663623,3.235837531,-0.04250399
3.205059457,3.463827582,-0.131653321
3.43025603,3.204489309,-0.212587175
3.767595532,4.069073823,-0.357928541
3.420841658,3.192676945,-0.384292952
3.221317632,3.00299121,-0.523814924
3.340838749,3.602614797,-0.866073479
3.195226302,2.9714844,-0.847841376
2.726266854,2.940196155,-0.860765486
2.654123597,2.464559759,-0.844117316
2.292017693,2.470314519,-0.856580801
2.254307328,2.090004506,-0.840802479
1.957192369,2.110181414,-0.850019659
2.832269992,2.641995353,1.138190138
2.425607009,2.630567869,0.976332176
2.810813132,2.621979913,0.972509558
2.403654809,2.600924937,0.823486038
2.788727938,2.600195293,0.814973764
2.405156187,2.598997987,0.686208626
2.768090061,2.580230269,0.664118405
2.399759402,2.589265719,0.550623741
2.76245551,2.573266688,0.520440901
2.399732273,2.586518433,0.418349357
2.870777638,2.672486201,0.394735968
3.142471393,3.380200549,0.208610391
3.18319811,2.959388794,0.119886131
3.178600614,3.418344953,0.040491061
3.467644744,3.222482474,-0.042468108
3.203410748,3.44080912,-0.131151361
3.477407561,3.228615377,-0.21489447
3.743328728,4.018067222,-0.354450372
3.488345492,3.235711349,-0.390759222
3.242898377,3.00456715,-0.525822823
3.337766767,3.577227193,-0.862427998
3.206490339,2.963666528,-0.848413582
2.731272483,2.927528803,-0.8595061
2.672407677,2.466312963,-0.847521933
2.296940225,2.46043719,-0.855595358
2.271349079,2.092882757,-0.844759811
1.944027064,2.083132326,-0.841522246
2.84528714,2.637859535,1.140163763
2.440227543,2.630186021,0.978964553
2.823820699,2.617957861,0.974226529
2.420245464,2.60281133,0.826430328
2.824666179,2.617550382,0.823125593
2.419139487,2.59807344,0.687920829
2.783941044,2.579088877,0.666019795
2.419147418,2.5941756,0.553243601
2.783422,2.576893305,0.522899055
2.413755068,2.585677248,0.41940904
2.88845747,2.672450597,0.396037733
2.701124457,2.49842696,0.236132542
3.17534712,3.394618928,0.210100462
3.181983704,2.94011149,0.119500116
3.195904691,3.415879108,0.040577805
3.434908983,3.172477963,-0.041947797
3.201650948,3.417833649,-0.1306494
3.426360521,3.161702506,-0.211139467
4.067527842,4.339291236,-0.383885917
3.507782307,3.233775962,-0.391823313
3.22069052,2.965680361,-0.520744092
3.346703684,3.564816299,-0.861907174
3.212675884,2.951158714,-0.847650641
2.739572088,2.918422767,-0.859296232
2.688574414,2.466002159,-0.850245628
2.306468512,2.45549803,-0.856334454
2.277759318,2.085904514,-0.844759811
1.949095744,2.075759961,-0.84095576
2.861128153,2.636269282,1.143265113
2.452235223,2.626918396,0.980543956
2.839681476,2.616508317,0.976924475
2.440862749,2.608887509,0.830733483
2.843473148,2.618809343,0.826260916
2.430454867,2.594221419,0.688872
2.801984593,2.579875805,0.668439803
2.433855745,2.593946916,0.554784623
2.802978557,2.579073908,0.525084043
2.430514671,2.587669503,0.420939746
2.907628921,2.673678379,0.397539771
2.866515486,2.834055447,0.220426812
3.223484102,2.751437572,0.157551077
3.187335422,3.148603162,0.08094109
3.255630822,2.776814742,0.002912623
3.303806919,3.26115399,-0.08475857
3.377910077,2.878666488,-0.159636354
3.245399468,3.200594189,-0.250608916
3.321097176,2.827249819,-0.316388468
3.317350096,3.267784758,-0.426317434
3.30212917,2.807227982,-0.474356991
3.300876918,2.803286645,-0.635550927
3.694726695,3.633555729,-0.860393335
2.965198798,2.912239954,-0.84912839
2.885648197,2.441476764,-0.844011176
2.506190273,2.460913822,-0.855066504
2.448260368,2.066359981,-0.84388768
2.100813201,2.061780332,-0.836209068
3.121149199,2.647954603,1.251065166
2.656652985,2.624206338,1.057306169
3.095109416,2.627628222,1.071199598
2.643660288,2.607455311,0.901264964
3.066918081,2.605261051,0.902221541
2.622027493,2.584223518,0.749539366
3.059562655,2.599012752,0.745048564
2.637010547,2.597630097,0.613186644
3.048108805,2.589557815,0.590823094
2.632134791,2.590113088,0.473190445
3.066295445,2.605008618,0.445047181
2.722297641,2.487191046,0.236644904
3.210540981,3.390304041,0.211048683
3.149756878,2.874709049,0.11762517
3.251186155,3.432504977,0.04101151
3.409247655,3.110231593,-0.041400574
3.224625642,3.400300287,-0.13073307
3.458247206,3.152059234,-0.211908561
4.090641926,4.310632653,-0.383563873
3.417022763,3.111538223,-0.379545562
3.23295001,2.940517633,-0.519799238
3.370549423,3.546355697,-0.862427998
3.206005884,2.908963301,-0.841165477
2.751365716,2.895179498,-0.857407182
2.707263619,2.452728314,-0.8513805
2.339524019,2.460262555,-0.862986037
2.273347063,2.056359869,-0.83842807
1.961795779,2.06376144,-0.840955761
2.894279451,2.634162971,1.150031555
2.473608595,2.617431648,0.98264979
2.879342759,2.620568597,0.985018547
2.478258269,2.616490747,0.837980872
2.873232334,2.613815831,0.830232313
2.459838824,2.593505828,0.692676921
2.85783847,2.599082823,0.677946982
2.455169761,2.58469518,0.556017484
2.85833798,2.597805532,0.532458449
2.468928156,2.596455488,0.424825343
2.937236894,2.667828612,0.399342215
2.882422377,2.815018064,0.220317616
3.23113746,2.72387778,0.157105279
3.192282828,3.115021235,0.080579826
3.375856697,2.843761438,0.003004514
3.320175541,3.237330785,-0.084667293
3.338930479,2.810265136,-0.156976347
3.597553925,3.504604763,-0.276136423
3.321587172,2.792698058,-0.314796755
3.435831401,3.343206088,-0.438899081
3.311678654,2.780521606,-0.473269026
3.241682357,3.152419016,-0.581576291
3.292999456,2.761997993,-0.63075925
3.71129156,3.605318003,-0.859083046
3.002701817,2.913093383,-0.854733193
2.883349203,2.409331428,-0.838998962
2.498924774,2.423842436,-0.84749743
2.442323264,2.035819552,-0.83751964
2.110661817,2.046173037,-0.83511598
3.15419766,2.642880214,1.257788212
2.703006055,2.637422243,1.069293257
3.134883836,2.628467196,1.079363051
2.675618602,2.60678225,0.906690056
3.108262268,2.607717083,0.909659843
2.651876773,2.581757388,0.753529478
3.093530047,2.595357147,0.749428014
2.670576224,2.598600791,0.617272363
3.077581715,2.582251718,0.593453507
2.658646624,2.58428411,0.475096929
3.091358653,2.593811477,0.44636647
2.494097562,2.604313054,0.294880145
2.732321524,2.465760343,0.236196587
3.247183768,3.387126462,0.212087219
3.148774923,2.838595366,0.11693585
3.286028295,3.426926738,0.041184997
3.478038594,3.134103906,-0.042001624
3.369870913,3.033862771,-0.205348623
3.456798691,3.109174938,-0.38183742
3.216952692,2.89009824,-0.514366215
3.3936115,3.527026988,-0.862775195
3.219408393,2.885305799,-0.840021008
2.777212909,2.886697871,-0.859925895
2.717907655,2.432173993,-0.850018652
2.34919872,2.440275338,-0.861015208
2.293834031,2.049441235,-0.841330099
1.98439702,2.062050787,-0.84520444
2.927512008,2.631748691,1.156798113
2.503627667,2.616843306,0.98817776
2.90690335,2.613222078,0.988942918
2.507748748,2.615296042,0.84251047
2.905219101,2.610516418,0.834830811
2.494744788,2.598191823,0.69800373
2.900843074,2.605852191,0.684342738
2.485365134,2.584537917,0.559253776
2.890441669,2.594777113,0.535462821
2.493077584,2.589842743,0.426238272
2.964660338,2.659722184,0.400844281
2.750274367,2.466694467,0.237093205
3.272817854,3.392966412,0.213080605
3.146301158,2.818916076,0.116522261
3.297220832,3.417548782,0.04119367
3.264911491,2.923952194,-0.039319333
3.253346944,2.910935824,-0.197702911
3.227802589,2.885342394,-0.355563066
3.218397096,2.873601759,-0.513185091
3.406471377,3.518721694,-0.863295962
3.242905875,2.888473417,-0.843835825
2.769735628,2.86130379,-0.854888527
2.688970219,2.391463482,-0.838669929
2.341839531,2.41774131,-0.855595357
2.305159786,2.046877351,-0.843176832
1.977371337,2.042173266,-0.839539554
2.950597136,2.636178534,1.162718879
2.52636361,2.6244406,0.993968831
2.91852152,2.607520897,0.990169339
2.523875858,2.616001589,0.845228262
2.924884714,2.61201296,0.83817511
2.504750537,2.592643951,0.698574444
2.917640785,2.604811787,0.68641698
2.509771656,2.593942818,0.562952305
2.905041434,2.591832605,0.53669187
2.506538488,2.587888293,0.427180262
2.997313368,2.672465527,0.404148763
2.773473234,2.472189997,0.23843814
3.285299125,3.385060164,0.213216071
3.133284622,2.789972303,0.11572265
3.313262117,3.413156934,0.041263064
3.632400959,3.233037035,-0.043625351
3.351097246,2.979937005,-0.203086582
3.411733973,3.030979714,-0.374798171
3.210857737,2.849214325,-0.510586685
3.415876343,3.506843268,-0.862948765
3.263512617,2.888921357,-0.846887643
2.789415663,2.863999505,-0.858246772
2.721834526,2.405776844,-0.846614036
2.357363268,2.41887418,-0.858551629
2.304919689,2.034051638,-0.84080248
2.001027725,2.053957756,-0.846903948
2.960823217,2.629024994,1.16356467
2.541786535,2.624300284,0.996864425
2.930857159,2.602416911,0.991640979
2.544101385,2.620826089,0.849304921
2.937272912,2.606921965,0.839429251
2.53253708,2.605362319,0.70409151
2.937406645,2.606307423,0.689182696
2.525988751,2.594726556,0.564801599
2.927803784,2.596052318,0.539423133
2.520010859,2.58587572,0.428122225
3.008477102,2.665896721,0.404549306
2.792996497,2.474257295,0.239462862
3.30125251,3.380682813,0.213577305
3.132097796,2.77173423,0.115364209
3.32581394,3.405122108,0.041289085
3.410118066,3.016493772,-0.040844381
3.375943296,2.983534237,-0.204036635
4.007619115,4.095456743,-0.369844463
3.332110648,2.942001208,-0.365057848
3.22256291,2.841977502,-0.511059112
3.427997631,3.497753663,-0.863295961
3.272360395,2.878895303,-0.846887643
2.785871356,2.842858641,-0.854468732
2.71822707,2.38777395,-0.843209418
2.364773149,2.411630474,-0.858551628
2.298820995,2.01615829,-0.836317468
2.014033227,2.05465771,-0.849736418
2.976788092,2.626912046,1.166666018
2.558578696,2.625471767,1.000286446
2.951911596,2.604959202,0.996055896
2.558935791,2.619976503,0.85156972
2.951124127,2.603073331,0.841101458
2.547382746,2.604598877,0.70599397
2.954992502,2.605752141,0.691429851
2.536702926,2.589788056,0.56541803
2.948389471,2.598192035,0.541744733
2.536970605,2.587350067,0.429652903
3.026348844,2.665202997,0.405851072
2.813307595,2.47688748,0.240551616
3.21140657,2.62404242,0.154170465
3.06176419,2.897318761,0.076154346
3.400490135,2.776465058,0.002988178
3.378887275,3.194951209,-0.084904609
3.500122473,2.855371141,-0.162476083
3.321364835,3.137706668,-0.2512128
3.422021535,2.788673994,-0.320223043
3.349095131,3.160254925,-0.421576511
3.340832642,2.718729319,-0.471419464
3.2254364,3.041760192,-0.570222857
3.321160044,2.699926856,-0.628145587
3.036329367,2.85662106,-0.851730609
2.932102245,2.374647456,-0.842485715
2.567658739,2.415182545,-0.85814139
2.477777214,2.001762959,-0.839047964
2.157218877,2.028051764,-0.841127941
3.253012365,2.641813665,1.280880244
2.773895102,2.624747615,1.081280227
3.228110152,2.623367283,1.097475711
2.766148528,2.613485508,0.923672791
3.231174649,2.627449705,0.933724921
2.751730606,2.597955164,0.770487358
3.203157824,2.604667847,0.766215782
2.745281511,2.59050755,0.625280425
3.180532197,2.586546269,0.605582696
2.745611628,2.588102657,0.483485479
3.188616714,2.593120885,0.454612176
2.553361109,2.585605776,0.297162257
2.970349472,2.599017082,0.25329649
3.36688179,3.405831146,0.216467147
3.176140753,2.776146797,0.116356828
3.385314087,3.423759461,0.041766165
3.224490668,2.817216418,-0.038413275
3.265493284,2.850428127,-0.196300444
3.956823295,3.994222968,-0.362888125
3.315547322,2.891368242,-0.361292682
3.238442855,2.820846184,-0.510822899
3.445233145,3.472459445,-0.86225437
3.275143617,2.845885018,-0.843072826
2.805328063,2.827793684,-0.855098395
2.71590784,2.356370699,-0.837989005
2.383622913,2.401201971,-0.860029764
2.327917206,2.016540711,-0.842385399
2.023900197,2.039538327,-0.848603396
3.036246308,2.646421268,1.183582413
2.588868532,2.624145306,1.005814302
2.997072212,2.612276904,1.005866819
2.58249659,2.611844638,0.854061015
2.986948777,2.602260746,0.846745005
2.570914349,2.596593312,0.70808663
2.985037289,2.599862616,0.694714184
2.564372676,2.586101711,0.568037833
2.98370414,2.596962005,0.545295323
2.57728409,2.596401944,0.433773997
2.991596553,2.602179974,0.399041808
2.57252144,2.589072108,0.298466317
2.946681132,2.562388504,0.250606621
3.383655206,3.401860211,0.216873531
3.191434931,2.772289351,0.116604977
3.423306947,3.441004555,0.042104458
3.450572594,2.996125585,-0.040996887
3.371566717,2.924842283,-0.202136528
3.957787373,3.97075584,-0.36185756
3.342477862,2.896848479,-0.363257103
3.273358619,2.833644775,-0.514956719
3.446825455,3.452812541,-0.859997619
3.280887455,2.833257214,-0.842309886
2.810536859,2.815713772,-0.854048937
2.71058545,2.337215854,-0.834130497
2.39097846,2.393877976,-0.860029765
2.316548963,1.994285798,-0.836053658
2.019305877,2.022460623,-0.844071475
3.053778504,2.645260141,1.187247621
2.606421962,2.625776042,1.009499654
3.019727857,2.615764609,1.010772283
2.595993028,2.609433486,0.855872877
3.012661571,2.608447255,0.851761511
2.583025651,2.592866666,0.709228117
3.001191472,2.597783022,0.696615574
2.584856127,2.590812371,0.570811773
2.999898926,2.594924774,0.546797538
2.593658607,2.596914172,0.435186925
2.998060511,2.59168812,0.398841536
2.585385176,2.586101658,0.299036853
2.95528381,2.553988656,0.250670667
3.38418282,3.381577679,0.216241365
3.185548594,2.750073881,0.116081097
3.439507197,3.436139714,0.042173853
3.361331037,2.900597779,-0.039830673
3.387333507,2.92035559,-0.202543688
3.967124285,3.955776448,-0.361599919
3.354370018,2.88918181,-0.363584511
3.336235501,2.870217007,-0.523460632
3.462287561,3.447085492,-0.86121278
3.318616199,2.84811139,-0.849748784
2.828169189,2.816046195,-0.856777519
2.736970668,2.345365368,-0.840031775
2.390754686,2.379011393,-0.85731984
2.312395353,1.978390624,-0.832360138
2.013946467,2.004753744,-0.839256314
3.073513516,2.645894006,1.191758621
2.621282931,2.624593217,1.012131917
3.035085827,2.61281281,1.013225015
2.610877076,2.608340811,0.858137675
3.03176907,2.608760033,0.854896836
2.602088308,2.596023909,0.712272007
3.015867324,2.594344154,0.698171313
2.605392307,2.59542173,0.573585713
3.012353267,2.589583737,0.547616923
2.607948672,2.595248957,0.436246636
3.01052582,2.586368474,0.399442351
2.596134415,2.58096832,0.299362861
2.990359177,2.56831745,0.252976264
3.261991906,3.239541974,0.207797622
3.190935993,2.737684089,0.115970806
3.296761216,3.273386266,0.040300229
3.380840895,2.899385228,-0.039956264
3.41329431,3.38495482,-0.134107364
3.393242751,2.907349699,-0.202362728
3.755258629,3.72161079,-0.341246244
3.330661148,2.851008733,-0.360064915
3.323892855,2.841899535,-0.52015353
3.472846855,3.436447052,-0.86121278
3.313894611,2.826450282,-0.846315438
2.838185265,2.8087316,-0.857197313
2.763431317,2.353374872,-0.845933112
2.393218391,2.366894971,-0.855595358
2.332416269,1.983158413,-0.837372769
2.032359311,2.010706803,-0.844354717
3.085261582,2.639570744,1.193168387
2.634793273,2.621982985,1.01423775
3.060030454,2.617984349,1.018866354
2.624396433,2.605808587,0.859949535
3.048676776,2.60707314,0.857405058
2.616314675,2.594249962,0.71398421
3.029053158,2.589559607,0.699381289
2.623172636,2.597148643,0.575743164
3.036854049,2.594486079,0.550621296
2.625077147,2.596313673,0.437777342
3.03131037,2.588102892,0.401144689
2.608294188,2.577194478,0.299851887
3.025550285,2.582454764,0.25528189
3.25556303,3.213378457,0.206759085
3.196277496,2.725287345,0.115860515
3.299670913,3.256232703,0.040213486
3.274801554,2.791056183,-0.038601663
3.445020788,3.395517971,-0.13494396
3.313156677,2.821150936,-0.197069537
3.340794448,3.290605839,-0.302664425
3.283216872,2.792989414,-0.354007892
3.226158374,3.175473998,-0.459095108
3.333352754,2.832331725,-0.520271665
3.487586144,3.429919683,-0.86225437
3.336029544,2.827695187,-0.849748785
2.852365353,2.805495881,-0.858876436
2.769151551,2.343627375,-0.845479163
2.385262739,2.344594754,-0.850175508
2.3193338,1.959806809,-0.83051335
2.063136551,2.028669006,-0.854551579
3.098461922,2.634443085,1.1951419
2.660658715,2.631525674,1.021081909
3.077649282,2.616747606,1.022054847
2.64139124,2.606638794,0.862893825
3.069328695,2.608473242,0.860958448
2.629855377,2.591723831,0.715506155
3.045240313,2.58726958,0.701282737
2.64662212,2.604334894,0.579133536
3.057637048,2.596056705,0.552942837
2.639403774,2.594513104,0.438837053
3.059720383,2.596171566,0.403848355
2.633255413,2.585940273,0.301807963
3.040308089,2.57897028,0.255858297
3.230462937,3.169096113,0.204546546
3.20614883,2.716760816,0.115915664
3.322495532,3.258697685,0.040369624
3.420695668,2.897328618,-0.04021642
3.884582559,3.805338822,-0.151703892
3.336285228,2.823234,-0.197929111
3.481372109,3.408092161,-0.314451513
3.300903423,2.790624819,-0.354990116
3.258643145,3.187824476,-0.462323891
3.312437526,2.797106217,-0.515665418
3.496684007,3.417826934,-0.861907173
3.353698287,2.825036166,-0.852037663
2.867251427,2.802882928,-0.860765485
2.780055336,2.338255034,-0.846614035
2.406309781,2.350811307,-0.855102665
2.332722085,1.958884829,-0.833151626
2.052203417,2.005571956,-0.847470429
3.115323745,2.632355654,1.198525178
2.671471611,2.626055626,1.022134768
3.109358969,2.627315386,1.029903586
2.65772041,2.606707263,0.865611561
3.085535164,2.605985387,0.863257698
