x,y,z
16.47482192,10.31991765,1.434078917
15.23326505,10.33474456,1.181367184
14.15944306,10.37690847,0.959951429
13.34045627,10.53499639,0.768336406
18.81873797,12.7146617,5.746023469
16.02010179,12.64849475,4.746142454
17.33092998,11.70371374,4.469919017
17.65481762,11.91884988,3.738388415
17.25152596,11.63825845,2.868775155
15.46136227,10.42350891,1.876648163
13.29402565,10.44352017,1.382464611
16.64104464,10.35308952,1.445776329
15.40144481,10.3799868,1.19193461
14.23964305,10.368685,0.963227479
13.49767122,10.59207645,0.775515904
19.27392012,11.91157192,5.977951945
18.10314558,13.14869297,5.430705187
19.22876372,11.89155085,5.068980137
18.51396331,11.44949986,4.040013829
17.35890862,12.59148453,3.552462147
18.16714857,11.23633573,3.155489424
15.54700435,10.41201285,1.88315699
13.35035774,10.42169786,1.384991252
16.7270264,10.3355362,1.450484738
15.47302138,10.35933569,1.195008661
14.34338753,10.37704009,0.968087046
13.43478211,10.47628578,0.770052304
19.27576388,11.8311412,5.967237415
18.13315676,13.08569881,5.427639124
19.30007849,11.85395019,5.078168315
18.48114077,11.35096518,4.025233308
18.7781043,11.53471217,3.255445461
15.66171463,10.41937745,1.893170571
13.46968304,10.44849856,1.394038164
16.79350672,10.30555628,1.453501091
15.55458791,10.3449758,1.198851372
14.43920717,10.37902736,0.972400575
13.4660704,10.4344067,0.770007124
19.14268556,12.67849692,5.809058483
16.15277634,12.51363727,4.751124926
17.74940717,11.74991433,4.549764924
17.764589,11.75639758,3.738561268
15.7591846,10.4146159,1.9010813
13.55140606,10.44545773,1.399172866
16.9783335,10.3474069,1.466743455
15.6595254,10.34561417,1.204487348
14.50267169,10.35731094,0.97453001
13.51226669,10.40401453,0.770819892
19.3322789,11.70313026,5.962390364
18.19886064,12.96404067,5.423393366
17.64565133,11.60352617,4.514022639
17.84337233,11.7299758,3.747549888
15.84928479,10.40444015,1.908090805
13.66014017,10.46261945,1.407078825
17.04924509,10.31902395,1.470127687
15.72289532,10.31832878,1.206921006
14.62477211,10.37690564,0.980590849
13.58775907,10.39589724,0.77330332
19.1475412,11.50252989,6.82736674
19.36892192,11.6442633,5.962645473
18.21316434,12.89018179,5.41584551
19.14497887,11.51736711,5.009254853
17.80917693,11.62940374,3.732857104
15.97614268,10.41772176,1.919506287
13.71120956,10.43514721,1.409034812
17.15604273,10.31188006,1.476601705
15.89994248,10.36486905,1.21806481
14.72917254,10.38319167,0.985450356
13.64583275,10.37411274,0.774793436
18.91335786,11.2830293,6.731490523
19.00030555,13.38129128,6.580035446
19.4087056,11.58726337,5.963921012
17.65642042,12.41502518,5.238941786
19.02776647,11.36749704,4.969437997
17.68565004,12.41897861,3.579918193
16.09905448,10.42761763,1.93042109
13.78529224,10.42489536,1.413354598
17.26809442,10.30724601,1.483517156
15.97019933,10.34099078,1.221010829
14.77895147,10.35055621,0.986651628
13.74853856,10.38578972,0.7788121
19.21364528,11.38238945,6.825904761
16.32766091,12.33149906,4.75769288
18.4947797,11.91952845,4.702977472
18.02675078,11.61433139,3.763452884
16.80425398,12.65371968,3.280934658
16.18033958,10.40993878,1.936329103
14.9672116,10.42186521,1.66430159
17.45405899,10.34575214,1.496759521
16.09417592,10.35132824,1.22805574
14.88358404,10.35592167,0.991511135
13.83226928,10.38254159,0.781747093
16.29452388,12.22814699,4.737083025
17.98191175,11.51106691,4.5635603
18.06976454,11.5637494,3.765008565
16.76704903,12.54528054,3.266140546
16.29855595,10.41543402,1.946643209
15.03760803,10.40252545,1.66857274
17.497748,10.29923701,1.497789488
16.19986414,10.34918192,1.233691598
15.00809997,10.37436947,0.997681169
13.94093304,10.39739123,0.786081841
18.12096698,13.54360945,6.172820079
19.08189238,11.16281943,4.956530492
20.09970574,11.75823506,4.321756402
17.39698298,11.9787297,3.499020861
16.36067456,10.3845769,1.950248098
15.19420251,10.44207587,1.682385877
17.63086237,10.30488954,1.506470666
16.25681887,10.3154726,1.235613014
15.08183676,10.35710394,1.00046578
14.02252884,10.39144876,0.788881411
19.82634085,11.50016759,7.005672368
18.15701003,13.48392595,6.170977579
17.07946133,11.69878045,5.024770375
19.10339285,11.09687265,4.953248898
20.17734347,11.72071359,4.330697576
17.42550797,11.91973018,3.497386501
16.51870729,10.41392694,1.965268468
15.31088021,10.4532486,1.691746072
17.76331228,10.30932017,1.515078291
16.36183998,10.31184006,1.241184856
15.13663569,10.32654116,1.001994638
14.10341338,10.38451053,0.791635801
19.4100459,13.22915943,6.650867698
19.21814404,12.06060296,5.74038201
16.30283884,12.0014373,4.707187719
18.22958503,11.4344552,4.599512389
18.61018409,11.66956386,3.855067131
17.06580123,12.52547577,3.301739299
16.66442545,10.43448391,1.978786802
15.36842744,10.42355433,1.694563226
17.91410066,10.32349138,1.525230751
16.53212604,10.34843139,1.251688148
15.30545519,10.3730456,1.011058479
14.18841892,10.38012326,0.794615915
19.2896017,13.06057943,6.595836399
19.88724331,11.38174062,6.045555535
18.89073145,12.76984672,5.534488793
20.00316048,11.45596212,4.278144401
17.85318976,12.05214833,3.568314835
16.73438111,10.4069545,1.983292914
15.46062378,10.4169779,1.701197222
18.0002216,10.29968703,1.529865608
16.5960023,10.31768453,1.254121924
15.39187362,10.36284536,1.014662294
14.25332882,10.36062681,0.796467235
19.31920211,12.99435711,6.592294929
19.21677371,11.89602071,5.718062215
16.40926416,11.92522797,4.716699667
18.29857093,11.32187018,4.599303059
17.7671762,11.91489646,3.543800399
20.04921254,11.40218278,3.40713356
16.8221011,10.39007361,1.989901995
15.55457986,10.41104027,1.708012894
18.08636475,10.27545041,1.534500465
16.75070199,10.34274361,1.263408329
15.45347384,10.33555893,1.016627936
14.36117333,10.37182901,0.800711681
18.83614995,12.56525268,5.495805856
21.02335667,11.86952563,5.412891786
18.76076693,12.50503282,4.590405095
18.07705689,12.04247023,3.598222301
20.05136464,11.32213547,3.401580314
18.05193863,11.08111582,2.919986272
16.91496259,10.37587328,1.997111773
15.68098588,10.42612908,1.718372778
14.51051783,10.42361362,1.461034142
18.25591557,10.29782055,1.546197877
16.81893513,10.31373677,1.266162301
15.59489206,10.36103721,1.02383533
14.43350892,10.35684034,0.802969386
18.10715063,13.02077524,6.085426794
19.08198847,12.64482583,5.556189175
21.041798,11.79495151,5.40829746
17.84488743,11.80892168,3.544781015
19.88581052,11.14833218,3.367677191
17.06822528,10.39795336,2.011431193
15.72785663,10.3878501,1.720008449
14.60165,10.42131339,1.466983996
18.38748658,10.29780387,1.554658279
16.89822827,10.29115654,1.269748832
15.66910793,10.34119481,1.026620058
14.50019228,10.3374465,0.804911007
19.86747746,11.04037521,6.947211654
19.82034456,13.06810125,6.721972223
21.05401303,11.71705358,5.40217201
18.81258377,12.37352925,4.584419837
17.88927705,11.75953795,3.546415374
20.08415494,11.17868263,3.395442705
18.25687403,11.05325834,2.942109372
17.11621879,10.35532546,2.013333773
15.83708837,10.39035386,1.728459911
14.67583079,10.40644456,1.471222125
18.47390616,10.2718756,1.559293137
17.03731419,10.30433886,1.277818347
15.76422475,10.33467983,1.030769734
14.56770838,10.3183186,0.80689775
18.9466447,11.40959553,6.499271619
18.67366631,13.25508499,6.248368251
19.24254853,11.58778846,5.682987982
17.17517728,12.16258852,4.893581931
19.27984718,11.60428957,4.809787562
18.58363121,12.13448665,3.676668451
20.03609784,11.07155875,3.381559829
18.54115009,11.14777824,2.982395434
17.292044,10.38936417,2.030256724
15.9406431,10.38847817,1.736275272
14.76472317,10.40155197,1.476927363
18.66860143,10.30527705,1.573050485
17.16380709,10.30905615,1.284927393
15.85777586,10.32658825,1.034810214
14.72674404,10.36326222,0.813941708
19.59287152,12.74633231,6.618175743
19.09455673,10.46627182,5.745037976
21.13149962,11.59093327,5.403703136
18.54292353,12.03382064,4.500627629
17.9553013,11.64579247,3.545271205
20.03961477,10.99338432,3.376445273
18.58802348,11.09845999,2.984443927
17.35972375,10.35767542,2.034462427
16.0752659,10.40608682,1.747453049
14.87740324,10.41278396,1.484996282
18.78758763,10.29588209,1.580407486
17.28706061,10.31104857,1.291780139
15.94974791,10.31693532,1.038741617
14.79940466,10.34665175,0.816199412
19.33162724,11.48039041,5.688383874
16.90141276,11.81368088,4.79483611
18.114518,10.75203195,4.502526098
18.2745796,11.77338341,3.601164147
20.28175558,11.04540428,3.4115176
18.33205409,11.79683258,2.793386954
17.53437073,10.38906721,2.051185106
16.1557002,10.38795825,1.752723888
14.9870165,10.4211462,1.492739045
18.87602888,10.26917194,1.585189447
17.41220362,10.31339933,1.298761035
16.07541065,10.32840417,1.044856934
14.93117708,10.37072487,0.821708192
19.85533034,12.74437244,6.680289982
19.36091052,11.41758103,5.686667257
16.9127742,11.74455059,4.787815158
18.15331515,10.69988327,4.503989508
18.31061398,11.71726215,3.601164147
20.33121154,10.99159758,3.414147835
18.34810215,11.72771398,2.790336627
17.61332724,10.36297415,2.056692576
16.3150675,10.41982108,1.766537027
15.08616051,10.42156896,1.499422394
19.03468277,10.27992946,1.595856891
17.49021343,10.28725121,1.302219416
16.179409,10.32523203,1.049552707
18.39391643,10.77140075,6.263851868
19.38915548,11.35420968,5.684705072
16.74107706,11.54935393,4.729156085
18.16748962,10.63327188,4.499390892
18.03091848,11.46046187,3.539224431
20.36570939,10.92963857,3.414293986
18.28015938,11.60544595,2.774576205
17.71118868,10.3475353,2.064403033
16.39236849,10.39852401,1.771444277
15.18380365,10.42035314,1.505942665
19.12941693,10.2554103,1.601153837
17.56736425,10.26021784,1.305613781
16.2776369,10.31777675,1.053866177
18.46253965,10.73565691,6.275975451
19.29567463,11.22011072,5.647177989
16.7201913,11.4593941,4.713302679
18.06682932,11.40561717,3.53938775
20.37469769,10.85408274,3.410202245
18.04467819,11.37842328,2.73352315
17.93132956,10.40249166,2.086332774
16.4814886,10.38428297,1.777623848
15.24287659,10.39224832,1.508632266
19.18632008,10.21026095,1.603287325
17.75501281,10.29689158,1.317205812
16.37850386,10.31141226,1.058343558
19.00472056,10.97304322,6.448804603
19.47105292,11.24229773,5.688383874
18.61991901,12.67761301,5.237833566
18.12848292,11.36690557,3.544617461
20.44987984,10.81372006,3.417216759
17.97358113,11.25667269,2.717508573
17.99764589,10.36729599,2.090338206
16.61794839,10.39917647,1.788892463
15.3893931,10.42312428,1.519961321
17.91278206,10.31508,1.32655635
16.48202512,10.30611284,1.062984733
21.58178385,11.30894104,7.44734517
18.91917733,11.81821167,6.316049336
19.53572988,11.19986636,5.697213943
16.91524341,11.44116845,4.748407429
18.3818415,11.44735154,3.587272688
18.01813925,11.2077645,2.719033975
18.10537197,10.35550229,2.099150157
16.68191486,10.36812078,1.792345718
15.44610611,10.39255198,1.522406422
17.98332757,10.28236581,1.329438353
16.59584536,10.30659628,1.068281083
19.18816282,9.979761352,6.610768708
18.87767211,11.71192386,6.290168519
19.45120377,11.07225635,5.662630374
16.93894534,11.38161408,4.745236462
20.43074369,10.64370221,3.403041819
18.04990787,11.15086906,2.718652506
18.23828581,10.35739355,2.110866047
16.80093051,10.3707706,1.801705913
15.55249338,10.39496043,1.529741728
18.09376459,10.27197974,1.335266377
16.73616751,10.32272835,1.075270085
19.27222511,9.948481535,6.629183681
18.9331758,11.6660673,6.296706912
18.72851945,12.50083627,5.235795086
20.45363578,10.57597388,3.401434164
18.02485205,11.05912996,2.709755678
18.43031343,10.39179626,2.129391406
16.93624946,10.38267657,1.812792854
15.65654913,10.39515999,1.536832535
18.21908398,10.26934296,1.342183258
16.81373717,10.29949826,1.078218489
19.00658201,10.66528718,6.40453981
17.98736904,10.97969896,4.290549388
18.0332323,11.91981836,3.37154969
20.51327036,10.52717472,3.405964355
17.9833103,10.95784341,2.698443908
18.52635494,10.3711698,2.136801456
17.0156576,10.35966925,1.817881898
15.77572846,10.4046949,1.54539045
18.34542693,10.26652091,1.349164153
16.89814588,10.28004164,1.081603794
19.0336932,9.6779045,6.52658454
18.94437699,11.51319717,6.276818989
18.01594137,10.92141418,4.28935205
18.43725614,12.1057602,3.440127218
20.57455986,10.47900753,3.410786847
18.047393,10.92110702,2.703019399
18.64157607,10.36068445,2.146414494
17.17263309,10.38316191,1.831240611
15.85009391,10.38410211,1.549547159
18.50507151,10.28143694,1.358578707
17.04840128,10.29992196,1.089193492
19.00030241,10.50899415,6.38057493
18.81425345,12.30927014,5.227868146
18.51240236,12.09379608,4.28504636
17.95127222,11.70800834,3.342731561
17.9745407,10.80182227,2.6871319
18.78913753,10.36737544,2.159732555
17.29149142,10.38271807,1.840509967
15.95705903,10.38435264,1.556882464
18.63090194,10.27667077,1.365495469
17.21263494,10.32719493,1.097656755
19.00974622,10.43818429,6.372962699
19.61494126,12.77854304,6.387618529
18.84784689,12.24883743,5.22673566
21.37064664,11.72823543,5.210481454
17.89091432,11.59056121,3.324855173
17.89942367,10.68207095,2.670990247
18.84878098,10.32497864,2.162936902
17.38656059,10.36736141,1.847234801
16.03153173,10.36294218,1.561039173
18.7805087,10.28417144,1.37414148
17.29227317,10.30295973,1.100714473
19.13266128,10.42940778,6.403412091
19.5074531,12.62343978,6.339973436
18.63083686,12.02666898,5.156300133
21.42541959,11.672909,5.215079596
17.98372149,11.57251058,3.335488642
17.93211309,10.6271063,2.670990249
18.19841247,11.69719501,2.565083267
19.00011954,10.33222222,2.176655507
17.48512333,10.35354946,1.854323105
16.17395492,10.38479019,1.571797573
18.89175801,10.26987847,1.379969622
17.38481583,10.28595887,1.10459116
20.47104203,10.09452142,6.976442247
19.04282025,11.2553751,6.263197659
22.04951491,10.8819763,6.48740286
19.30262075,11.38939281,5.43990433
18.38878189,11.75354595,3.403912152
17.95522883,10.5665071,2.669592162
18.25430114,11.65413232,2.567909005
17.68248793,10.39727817,1.87186213
16.25363705,10.36566721,1.576443278
19.02065916,10.26447727,1.387078548
17.4455623,10.24977271,1.106447606
18.91399647,10.16017155,6.309244381
19.47314235,12.43238374,6.303910244
19.3173477,11.31832903,5.434243318
18.78093643,11.92319996,3.469715679
20.42597231,10.95400303,3.195160412
18.2958401,11.60179686,2.568733218
17.73064187,10.35251996,1.873588757
16.41334128,10.39681984,1.588831865
19.14002862,10.2531983,1.393482949
17.66839265,10.30790565,1.118569164
18.93322591,10.09577583,6.305297123
19.51526623,12.37516592,6.305226789
19.07411493,12.06556854,5.248025006
21.53194735,11.47522018,5.215079597
19.16470395,12.10461445,4.392534039
17.98767741,11.32915766,2.520575288
17.82004343,10.33154043,1.87967749
16.48143673,10.36923737,1.592336499
19.20575896,10.21270227,1.395980741
17.73017342,10.27116968,1.120480208
21.04470139,10.13768898,7.139840517
18.79667004,10.87770228,6.149049039
22.15047689,10.67941687,6.487913075
19.1399083,12.02512855,5.255951947
21.6759681,11.46672464,5.241416268
19.1343882,12.00350201,4.377124568
18.50036677,11.58642475,3.404682484
18.02235038,11.27391881,2.520575288
17.9457297,10.33097785,1.889582948
16.63995506,10.39784805,1.604562126
17.84555763,10.26501876,1.125776558
18.669778,10.72794414,6.096741914
19.1527472,11.95139843,5.249383992
21.71191016,11.400624,5.241625596
19.23028289,11.98160249,4.390631933
18.02142578,11.19656308,2.51563001
18.14766345,10.37322929,1.90748556
16.70141533,10.36514298,1.607414685
17.92292007,10.23646674,1.128670482
21.30352289,10.10179146,7.206486137
18.66165203,10.64725177,6.083392856
19.1992577,11.89873951,5.252101488
21.75805776,11.33983502,5.244342616
19.31453629,11.9519942,4.401475687
18.26177496,11.28159106,3.347971286
18.05738287,11.14226508,2.515865568
18.2452264,10.35486206,1.91439207
16.77556066,10.34000321,1.611489856
18.13837768,10.28585158,1.140246061
20.27926349,10.49596179,6.710162389
21.92853009,10.3247584,6.3947987
19.33896583,10.93601627,5.392494316
22.43891766,10.57320291,5.561438959
18.33588312,11.24979748,3.355214205
18.36800763,10.35017027,1.923934058
16.91686113,10.35561372,1.622003876
18.21248291,10.25415955,1.142921476
22.21263879,10.36642001,7.492360029
18.86416697,10.60990013,6.128071545
22.10377528,10.32454233,6.436636391
19.35802005,10.86854623,5.388484118
18.1050506,11.01886644,2.513039592
18.45095129,10.32245651,1.929295734
17.02094088,10.34767397,1.628931605
18.35977625,10.2630356,1.150183468
18.93463889,9.653183232,6.245526061
21.99497743,10.19163927,6.395819131
22.73905075,10.54461096,4.651855031
18.59745094,10.32962981,1.941291407
17.13963595,10.34794895,1.637245022
18.48808697,10.2604425,1.156244306
20.68234278,10.46437172,6.811378703
19.93090472,12.04655794,6.354451166
19.16788863,11.53838418,4.335460922
18.76509669,10.34754216,1.955468015
17.21233269,10.31991675,1.641157232
18.64453994,10.27257863,1.164052277
20.71606434,10.40173098,6.8119428
19.89746108,11.94315273,6.332076536
23.47246188,10.71020839,5.784587782
18.87799322,10.33439592,1.963919477
17.38350132,10.35017289,1.654442274
18.72239804,10.24072531,1.166946201
21.90591581,9.897747688,7.347377212
19.23612048,10.51047793,6.206531761
22.04027254,9.9672566,6.382043305
21.88957002,10.90080122,5.226784994
19.23410591,11.41804978,4.334510107
20.46094966,11.1431094,3.859545753
18.93323375,10.28926888,1.966373161
17.4460591,10.31505347,1.65737649
18.88973873,10.25709139,1.175409465
20.86980336,10.31907485,6.841546283
20.04259437,11.86359127,6.354977594
21.99743086,10.87041881,5.244551472
20.52367945,11.09576655,3.864939019
22.96368567,10.30973827,3.718400697
19.07777567,10.29212951,1.978096084
17.58248017,10.32304561,1.667319857
19.00549641,10.24457325,1.180651216
20.81781422,10.21400505,6.814198242
20.04479878,11.7820025,6.344185339
23.20277569,10.33020808,5.69445316
17.75011049,10.34836768,1.68019744
19.10902923,10.22484601,1.185128598
19.6095238,10.48130254,6.295616865
21.96347098,10.68646589,5.220723441
17.83525492,10.32482133,1.685250722
19.15706516,10.17507106,1.186165958
20.55094057,9.927080237,6.706779228
21.77210969,10.51696345,6.11736756
21.99791407,10.61988287,5.221141152
23.53936211,10.30746431,4.769187014
17.98177142,10.33611436,1.696090661
20.66262848,9.902962948,6.733281363
21.80252539,10.4492798,6.116876896
20.88565441,11.98795069,5.599524087
21.9924681,10.53417833,5.212153248
23.92169431,10.38753566,4.840169946
20.02653726,11.45676246,3.598548973
18.09303371,10.32635001,1.703589045
20.2031394,10.56068298,6.454716918
24.82597048,10.681063,7.130530778
23.42638231,10.08714632,5.71851818
23.97151205,10.32187278,4.843819658
20.08393117,11.40795648,3.602555837
18.24949566,10.34155164,1.715325557
20.22775712,10.49466373,6.452265022
24.72614546,10.55700521,6.0278639
23.61152959,10.08111203,4.764807265
20.10592591,11.33900576,3.600244131
18.34889096,10.32363381,1.721682751
20.8911902,8.883023859,-0.816550186
20.2744021,10.44004438,6.456896541
21.72567572,10.16763055,6.068803128
22.14783913,10.35907853,5.226157954
23.60432017,9.992526773,4.757143538
20.26217631,11.34533115,3.621973123
18.45617628,10.30957809,1.728773676
20.8106028,8.773466775,-0.812344482
20.41257623,10.43208893,6.490678069
21.99593973,10.21196878,6.13551789
22.2212079,10.31042565,5.235981753
20.30034208,11.28503449,3.622589673
18.6254345,10.32928028,1.741651141
20.86600493,8.721526476,-0.813458791
16.48778198,7.607896827,-0.822344568
20.34580124,10.31936344,6.459348436
21.84400955,10.06008719,6.084501081
22.51035246,10.36077618,5.296597771
23.69514312,9.859970757,4.763165037
20.33486793,11.22270145,3.622589673
18.73648738,10.31583342,1.749067986
18.61719844,10.23745672,0.960330238
20.85388822,8.641401829,-0.811949065
16.50196188,7.553119695,-0.821892169
20.35845708,10.24737763,6.453354594
23.70362007,10.82849426,6.593198116
22.76442785,10.39320203,5.348853399
23.73346213,9.790602699,4.764807265
18.85637825,10.30658246,1.757299864
18.66167053,10.18747156,0.961007525
20.57340123,8.451311443,-0.800015022
16.39861987,7.445053737,-0.8156037
19.14932429,10.47895332,5.956179131
25.34850206,10.36595584,6.140094678
23.78978017,9.728536496,4.770099204
19.03070036,10.3261627,1.770585023
18.87376738,10.22822155,0.970309247
20.62792608,8.399837205,-0.801129332
16.46328413,7.413576989,-0.817684737
19.10169699,10.37686604,5.931435571
23.69799133,10.65065709,6.57333117
22.86256157,10.26895327,5.357004932
23.74388468,9.624847701,4.7549539
19.11406225,10.29561467,1.775393688
18.99391411,10.21807081,0.974869778
20.48679068,8.269181829,-0.794659068
16.53703057,7.385846855,-0.820218232
19.02220671,10.25822743,5.896951663
23.73675522,10.58066596,6.575047788
23.32273548,10.38977404,5.457335285
23.66838461,9.509802124,4.73396925
20.54769252,11.01339125,3.63615116
19.11593699,10.20821924,0.979520609
20.59928247,8.241184295,-0.798037996
16.59523531,7.350856024,-0.821982649
20.69279546,10.09932729,6.519555331
25.99003477,10.34119713,7.380026761
23.51372081,10.38851647,5.49454098
23.77235208,9.466972147,4.748931926
19.20541985,10.18040396,0.982500722
20.48511961,8.12269408,-0.792646041
16.72380533,7.346513995,-0.827230599
21.19756128,11.26400464,6.549770341
23.95128016,10.50060475,6.61649924
23.80737373,9.396398676,5.738426607
23.53831604,10.31318948,5.492868713
24.31983661,9.598659358,4.852395576
23.20478343,10.1631915,4.445894118
24.59698888,9.709535274,3.906330088
20.50529262,8.05798018,-0.792466332
16.7581708,7.300358201,-0.827818718
25.80623852,10.08509657,7.310127202
23.73249485,9.282793414,5.713486593
24.35466527,9.526151104,4.853490869
23.34697435,10.14021429,4.467155335
24.5068947,9.587174369,3.887332419
20.46286967,7.968922348,-0.789878239
16.7658156,7.242571959,-0.827094879
23.87549067,10.29318824,6.577991301
23.78451698,9.219108729,5.719174782
22.24714607,10.57505488,5.015150656
23.91623244,9.270163089,4.760427993
23.33455306,10.04983861,4.458858368
24.73173751,9.587750223,3.918313007
20.49095127,7.907544948,-0.790022006
16.85499131,7.219815214,-0.830397454
25.84145295,9.916515742,7.302729071
21.9093009,10.34199497,5.880512353
23.89558046,9.177933165,5.73908321
23.61695206,10.08957982,5.489315323
23.88122993,9.172420668,4.747837108
21.40107863,8.193696683,0.015598425
20.36203079,7.786105648,-0.784126868
16.61685013,7.057552211,-0.817594257
20.83689149,10.7465483,6.397095188
23.77932047,10.0791535,6.534332569
23.84975626,9.076466806,5.721362511
23.66040268,10.02241657,5.492241673
23.82563507,9.06728776,4.73123173
24.16309069,10.23137451,4.605095741
25.00367358,9.517109888,3.952070217
21.4494892,8.136868096,0.015615442
20.27648282,7.682173452,-0.779921164
16.47362182,6.937140792,-0.809496131
23.7922562,9.998640493,6.52942687
23.90214273,9.012549005,5.727269095
23.67751408,9.944100637,5.489106467
23.88554101,9.006289496,4.737618487
24.90594186,9.392531795,3.932049731
21.36202347,8.028805769,0.015533761
20.27656468,7.611149717,-0.779022505
16.46164138,6.872712518,-0.807867494
23.81118608,9.920752531,6.526238734
24.03297021,8.977761665,5.751990715
22.75457473,9.474465966,5.268379978
23.96463808,8.952235417,4.747837107
25.0680858,9.365934697,3.95309327
21.26004223,7.916122439,0.015441869
20.31949073,7.556221164,-0.779777398
16.500186,6.829435373,-0.808727052
20.60325993,10.38711051,6.295750127
23.82090092,9.839141946,6.520597273
24.1702153,8.944625624,5.778243462
22.7537062,9.392298259,5.261482528
24.1727209,8.94555369,4.783602279
21.26827846,7.844977356,0.015430298
20.36602108,7.502482336,-0.780676057
16.49056183,6.766267032,-0.807234075
23.85276897,9.766749147,6.521087938
24.19571012,8.869759173,5.777805726
22.51089368,9.211341863,5.198776058
22.29967794,10.1010963,4.984227291
24.04773427,8.81551277,4.753493827
24.58948752,10.05788415,4.662484522
25.05913709,9.187765798,3.942717533
21.31948477,7.789642774,0.015450037
20.29694072,7.406393225,-0.777153304
16.51957231,6.719030357,-0.807641294
26.0977769,9.467537072,7.324668351
24.23473315,8.799815119,5.78065006
22.50008088,9.126430528,5.189788154
22.3672091,10.04909913,4.992406955
24.00627746,8.716861558,4.739990751
25.02397737,9.087879328,3.932780484
21.29062571,7.705141981,0.015411919
20.15321379,7.283963159,-0.770790865
16.52713597,6.663088113,-0.807007876
26.00840574,9.344922074,7.291504327
24.52081668,10.93715188,6.516893503
27.07314637,9.736558693,6.450534264
22.55337916,9.067572189,5.195640853
22.68972352,10.11045054,5.057445636
23.83676639,8.572629959,4.701305906
25.43991645,9.150690173,3.993718605
21.22002757,7.606045203,0.015343851
20.16229351,7.217384555,-0.770287623
16.49369675,6.590852398,-0.804383901
26.11529443,9.292963357,7.313443604
24.40050841,10.79385998,6.476087687
27.31706701,9.729738321,6.501508159
22.92902446,9.136984513,5.275695615
22.6596887,10.01385783,5.043879143
24.88232301,9.911328426,4.700513239
25.34765525,9.029773273,3.974867324
21.21499206,7.530871349,0.015323431
20.06095052,7.111750129,-0.765578678
16.45439756,6.516677436,-0.801488486
25.43141809,10.05053115,6.918431098
22.91083877,11.08145235,5.917730397
27.33666568,9.642314808,6.499102036
23.75189089,9.380549725,5.45838051
22.55119254,9.883324412,5.012955776
23.81288602,8.399391092,4.686342757
25.01430467,9.875089577,4.719700214
23.20676784,10.16339647,4.196863934
25.47506088,8.987180208,3.990503768
23.19636945,8.163725946,0.914175105
21.19176939,7.449499082,0.015290078
20.10624773,7.058446188,-0.766477337
16.46036488,6.460690515,-0.800809887
25.99923266,10.18282135,7.064368542
22.57679145,10.83453884,5.822834559
27.23530922,9.512712647,6.468036096
23.77236373,9.304428552,5.456499389
22.49603284,9.776987219,4.99400293
22.63304264,10.84258626,4.863196633
23.83111728,8.323700511,4.684883157
25.2013337,9.859665185,4.749258873
23.20164441,10.07643221,4.190326499
24.53535864,9.589731825,3.631478571
21.24663491,7.395626004,0.015313221
20.12025622,6.994102979,-0.766189804
16.30693638,6.342803013,-0.792395082
26.18489404,10.16299146,7.106310659
22.38567254,10.65845056,5.765081949
23.82541347,9.241000332,5.462142757
22.66900284,9.769587611,5.025724519
22.53142481,10.70903996,4.834279795
23.82402027,8.23930143,4.678496402
23.41548206,10.08402723,4.223339365
26.24026163,9.076473038,4.101566295
24.35312355,9.432479032,3.600205684
21.23518898,7.31867686,0.015288716
21.26052035,8.205643951,-0.20444617
19.88364806,6.843553323,-0.756376495
16.36826522,6.308911843,-0.794430938
25.92821203,9.971945101,7.028313453
22.46582372,10.61218655,5.777311868
23.79066924,9.143654235,5.447720341
22.59344468,9.654942157,5.002382388
22.53664645,10.62688395,4.828382273
23.76174688,8.136231767,4.661343615
23.47897042,10.02608915,4.229222582
26.25675318,8.9920799,4.099812489
24.63813297,9.456043394,3.638033653
21.24902438,7.25058733,0.01528259
21.27905687,8.137878174,-0.204383377
20.01711646,6.82087659,-0.760654082
16.19436397,6.184887034,-0.785066035
24.87793884,9.480501355,6.735702329
23.86247461,9.087327118,5.457753469
22.53002806,9.546205254,4.981833092
22.48911209,10.52025438,4.811260482
23.71955346,8.040566882,4.648205322
23.65679417,10.01632362,4.255698487
26.26266789,8.90417674,4.096451263
24.62165672,9.363156042,3.631341959
21.19916711,7.161040108,0.015230859
21.23285738,8.045628263,-0.203701589
20.12695986,6.789458937,-0.76403301
16.21046075,6.134113505,-0.784930315
23.13023442,10.75294048,5.931092804
23.78319446,8.973684667,5.433297924
22.78325548,9.571160678,5.031310666
22.51860917,10.44996898,4.810689707
23.75529562,7.971511865,4.650394958
23.78110663,9.983030536,4.272531318
26.23827998,8.806249957,4.088414171
24.84030446,9.359175471,3.659337307
23.52160488,9.859611286,3.268102663
23.20420393,7.768563734,0.909680021
21.22198498,7.096285056,0.01523154
21.21531332,7.964633165,-0.203297902
20.03679049,6.690645569,-0.759827306
16.18991678,6.069622822,-0.783030179
23.16842194,10.68437464,5.932451315
23.81794071,8.903415808,5.43497019
22.80527538,9.498203849,5.029714218
23.5902239,7.835678151,4.61335234
23.79067428,9.901304692,4.268772885
24.69070934,9.216408125,3.633117224
23.56823158,9.794253798,3.270390291
22.93576522,7.600519648,0.898238015
21.26549129,7.038370679,0.015247195
21.18903873,7.880685033,-0.20281348
20.07809791,6.636041651,-0.76061814
16.16257443,6.002881484,-0.780813363
26.99767101,10.00470724,7.284378822
24.03589101,8.900938421,5.478446298
22.83702593,9.429314979,5.030313123
23.81729109,9.826764358,4.268119142
24.70678973,9.136147945,3.631341959
23.61742688,9.729835262,3.273059386
22.96562191,7.532298048,0.898498011
21.29648674,6.976208604,0.015254002
21.18309018,7.804578501,-0.202526409
20.07271667,6.566022509,-0.759647598
16.13872576,5.937745192,-0.778777566
24.31872335,9.964291793,6.378908749
24.06596399,7.83007124,5.674107472
24.052068,8.823114561,5.475938133
22.89668037,9.371828759,5.037096133
23.36235315,10.58128983,4.969923279
23.85280507,9.755888571,4.269099519
24.73191227,9.05928333,3.630932355
23.71144615,9.683582852,3.281956452
22.99907721,7.465198885,0.89890666
21.31874215,6.9111478,0.015254683
21.18532929,7.731668221,-0.202320073
19.92257856,6.449316203,-0.753213277
16.17000652,5.892993223,-0.779410925
24.21964781,8.800379223,5.507918645
22.99524218,9.329905131,5.052457919
23.72157291,10.65640392,5.039362214
26.5901396,8.562747262,4.126555422
24.76145164,8.98404044,3.631205345
23.77781971,9.625679926,3.287040253
22.96193143,7.375350735,0.896566283
21.50648046,6.899166082,0.015373801
21.16663276,7.651338842,-0.201916385
19.81474106,6.347312174,-0.748396506
16.14572753,5.828093466,-0.777375069
23.94309304,9.639232787,6.264746782
24.31278319,8.74987527,5.522968104
22.99375531,9.247247722,5.045874228
23.60260255,10.51605304,5.007210991
24.26007194,9.749135945,4.331202791
26.62194118,8.482931982,4.127431851
24.78516919,8.906690413,3.630659128
23.92138687,9.598486798,3.302800674
22.9558806,7.295789351,0.895451796
21.48655945,6.820143396,0.015344532
21.13257768,7.565804307,-0.20136917
19.82840491,6.284679591,-0.748180797
16.19833699,5.790974715,-0.779049006
23.95539458,8.538333384,5.435806087
23.09028645,9.203872678,5.060836903
23.50095599,10.38446985,4.978864928
23.7828676,8.473098092,4.430855627
25.2967535,9.002996362,3.70153525
24.06316624,9.569771166,3.318306703
23.02105341,7.238816642,0.897123527
21.21448639,6.662209838,0.015135564
21.1443804,7.496924743,-0.201261509
19.71123172,6.181057554,-0.743040552
16.21414359,5.740584632,-0.778958526
27.86918636,9.844165169,7.477899844
23.98885353,8.467402658,5.437478354
23.16762905,9.152431019,5.07161056
23.49314081,10.29498336,4.970494053
25.31024075,8.920404927,3.699486757
24.04534951,9.477351566,3.311824579
23.00021377,7.154797203,0.895451796
21.50412885,6.680758898,0.015327515
21.14746787,7.425063032,-0.201073129
19.6546983,6.09716365,-0.740200808
16.23639264,5.692466191,-0.779184726
24.59366759,10.70733458,6.23706872
23.97317667,8.37924617,5.428072265
23.72756266,9.289579913,5.187921635
23.54532256,10.23185888,4.974869985
23.84091941,8.329283446,4.432065365
25.05502586,8.744133573,3.658244873
23.04306949,7.090666105,0.896269095
21.55320067,6.623566136,0.015347935
21.1493684,7.35292427,-0.200875763
19.70006252,6.04504373,-0.741207292
16.20093046,5.624280048,-0.77665123
24.82134498,10.71599416,6.286441869
24.15587299,8.360029346,5.463606168
23.88384727,9.266361349,5.21585237
23.72766861,8.208123823,4.406309484
25.04845238,9.710656354,4.450342463
25.11918638,8.680166414,3.663707281
23.00926639,7.003061207,0.894114387
21.63848105,6.577186547,0.015394222
21.14251743,7.277914461,-0.200597662
21.23899741,8.183976953,-0.415578035
19.64201354,5.96135808,-0.738331606
16.24928613,5.585265366,-0.778144148
23.56112194,10.08627996,5.959402629
24.04726699,8.239917092,5.433297922
23.92039554,9.196208201,5.217647664
22.8421051,9.760083944,4.813543102
25.23005538,8.631921986,3.675997997
22.9751423,6.915730898,0.891959738
21.79167202,6.550785412,0.015488836
21.15622711,7.210112977,-0.200516928
21.24906174,8.113071718,-0.415285943
19.62958016,5.891875435,-0.737181355
16.08665797,5.474240615,-0.769548383
23.51574392,9.98159929,5.940151757
24.09002948,8.172071408,5.437269024
23.94849555,9.122777772,5.217647663
23.46855328,9.942721081,4.939103863
25.84002352,8.752146487,3.760940099
23.01061872,6.849487694,0.892516982
21.85767753,6.497575949,0.015521509
21.14792924,7.134943389,-0.200229857
21.08401562,7.97602776,-0.411580173
19.52685044,5.795796171,-0.732652118
16.16302001,5.44495337,-0.772398558
23.6782262,9.964946162,5.973444528
24.10571656,8.095012718,5.435179045
23.96995547,9.046840625,5.216251484
23.5315319,9.884360495,4.945952675
25.00014868,9.428183719,4.426154899
26.18140015,8.778326751,3.806688572
24.74207303,9.316062465,3.38770296
23.13889281,6.8104618,0.896677685
22.14518479,6.509165716,0.015711418
21.16307973,7.067811341,-0.200167064
21.10183215,7.908849525,-0.41145238
19.57522604,5.744866639,-0.733802428
16.11994521,5.375431525,-0.769548383
23.45070082,9.784612539,5.908444471
24.17498236,8.035825375,5.445212176
24.05633902,8.995223617,5.229019752
24.9993826,9.340390079,4.420925424
26.23923547,8.708258835,3.81119516
24.75102233,9.232830725,3.385033865
23.1654341,6.741116134,0.896900606
22.50498763,6.539980529,0.015952378
21.19226012,7.005361329,-0.200238828
21.13255893,7.846508828,-0.411580173
19.55820573,5.674758631,-0.732508351
16.09936321,5.313739793,-0.767784026
23.4401071,9.695867462,5.898253029
24.11406149,7.933502824,5.425982287
24.07371407,8.917632819,5.226824871
25.27495257,9.355083536,4.464560793
24.20128293,9.97018575,4.082444276
26.25265188,8.623389376,3.809283281
25.02764644,9.248650947,3.418969411
23.47699757,6.753723918,0.908156884
22.52783009,6.47173377,0.015954419
21.19939671,6.935647619,-0.20010427
21.13588798,7.77404489,-0.411178557
19.53902003,5.604258106,-0.731142392
16.11654043,5.264632718,-0.767829266
23.45172,9.61651756,5.893723079
24.16719364,8.868038562,5.241189588
23.68147396,9.69190598,4.95850875
26.42406866,8.589971085,3.830313946
24.81279581,9.082832939,3.385796327
23.63602027,6.721023976,0.91350646
22.87657303,6.496009544,0.016187213
21.22437979,6.871808029,-0.200140152
21.13521291,7.700265367,-0.410703925
19.4474766,5.513485239,-0.727080514
16.11550571,5.209631892,-0.767014888
25.91673033,9.43066196,6.69403326
24.15468696,8.779459533,5.232610813
23.67016075,9.602598878,4.949948092
24.19239801,9.793324741,4.070732202
26.51348222,8.529188496,3.839463736
25.23125681,9.148330068,3.439050931
23.98843233,6.741756884,0.926323009
22.93683085,6.43714342,0.0162158
21.25107511,6.808491008,-0.200193975
21.13522582,7.626902609,-0.410247532
19.52107658,5.469703154,-0.729201307
16.14092726,5.163209324,-0.767467287
24.03214854,8.651542866,5.200290791
23.68402392,9.523708322,4.946713706
24.23241778,9.723104958,4.072427359
26.53386062,8.446002622,3.838644291
24.90353382,8.943152971,3.390626211
24.26127306,6.738193889,0.936056208
23.38528697,6.485670948,0.016518702
21.2690037,6.742354885,-0.200167064
21.1387534,7.554958442,-0.409864185
19.53198719,5.408187871,-0.728985658
16.15573957,5.113363972,-0.767422047
27.84574454,9.939542872,7.176390286
24.03273459,8.568558078,5.194704644
23.79429721,9.483350546,4.963645241
26.59366335,8.375271199,3.84356072
25.10935097,8.93019131,3.414902228
24.70199426,6.77903673,0.952253353
23.54299013,6.451689334,0.01661604
21.29913112,6.680063448,-0.200256783
21.11847668,7.474724461,-0.409024445
19.47040847,5.326877549,-0.72607403
27.82846495,9.83722495,7.164125081
25.54863945,10.11194069,6.389037677
24.08200893,8.502943021,5.19969236
25.41387203,10.03859722,5.295049925
25.13663207,8.853114602,3.414902229
23.84645424,6.456262755,0.016816159
21.38351252,6.63454041,-0.200857822
21.15735008,7.415520899,-0.409334777
19.42491578,5.250429428,-0.723773469
25.58860956,10.03706705,6.391302652
24.10798249,8.429020019,5.19969236
25.44272128,9.959865566,5.294669408
24.8022167,9.68767206,4.153025235
25.36409836,8.845853988,3.442101496
24.17142125,6.464717532,0.017031253
21.48980307,6.595310138,-0.201665197
21.13371719,7.334512996,-0.40844029
19.58093392,5.22819091,-0.728985657
25.56572047,9.937694959,6.377940245
24.07168815,8.333540613,5.18632566
24.09108629,9.345616721,5.00740125
24.81062927,9.603331368,4.149480905
25.37330425,8.76184499,3.439686555
21.40657123,8.247957796,1.03691106
24.68132424,6.520021442,0.017376357
21.59030998,6.553747112,-0.202418763
21.14666286,7.266392076,-0.408257721
21.71803074,8.350119505,-0.649119777
19.42391175,5.122477166,-0.722551277
23.95548753,9.227280392,5.969141549
24.12124297,8.267910721,5.191512696
23.93637108,9.201211289,4.969352505
24.89071367,9.54662866,4.157956686
25.33249124,8.660856279,3.430535336
21.45044156,8.189370807,1.037814071
24.85506221,6.484407649,0.017484586
21.63904708,6.49610364,-0.202687878
21.15371233,7.196328983,-0.407965658
21.68096103,8.259607701,-0.64725135
19.43760245,5.062357522,-0.722479393
24.21482184,9.241959214,6.026667662
24.13721451,8.190720826,5.189517608
23.95623106,9.124587801,4.967640658
25.24407284,9.593420142,4.21204814
25.43598384,8.609172976,3.440957564
21.46612068,8.119988724,1.037362506
25.15954458,6.481466622,0.017684705
21.92728748,6.509366264,-0.205199722
21.1671623,7.128524169,-0.407801358
21.70900379,8.194111277,-0.647335035
19.42497311,4.995481923,-0.721436968
24.16926585,9.139719956,6.008322782
23.91430568,9.024704691,4.953182003
25.36955283,9.552135531,4.228075589
25.63062805,8.587501307,3.463708182
21.8333045,8.182403976,1.053888847
22.59916055,6.638586033,0.649695695
21.45391525,8.037658347,0.198734088
25.49040504,6.483373469,0.017903202
21.18418989,7.061969595,-0.407710073
21.96155997,8.212551091,-0.654111487
19.40049478,4.92577999,-0.719963183
25.60092023,9.591435315,6.356877394
25.4913129,9.508790516,4.243486013
21.59514296,8.01767739,1.041200568
23.49009907,6.822087768,0.674704135
21.48409848,7.973889117,0.198786123
22.43258056,6.509864072,-0.209550593
21.18201944,6.989112157,-0.40725368
21.9950871,8.148261098,-0.654362482
19.45428968,4.875955358,-0.721401026
25.59552604,9.499968779,6.348271435
25.46661087,9.410675522,4.234548175
25.32283221,8.311906218,3.415156383
21.4208732,7.878282797,1.031628062
23.51860648,6.752195775,0.674924732
21.43431553,7.880678547,0.198100863
22.7129286,6.515736907,-0.211981703
21.19575762,6.921610993,-0.407107649
21.86983641,8.025642975,-0.649900598
19.23730157,4.758891309,-0.712809911
26.77185005,9.843226576,6.632505481
25.49257887,9.331481909,4.234085644
25.25764994,8.204758992,3.402954835
21.45526679,7.816288893,1.032124688
23.54017249,6.680282855,0.674952329
21.44429876,7.809749158,0.197970761
22.87326954,6.485851164,-0.213291455
21.22450416,6.85901025,-0.40725368
19.26054921,4.701982516,-0.713133445
27.20186989,9.906703504,6.731477803
24.02417454,8.730894766,4.953372261
25.4978649,9.244808154,4.230232801
21.73849823,7.844010959,1.044587185
21.40701732,7.721867738,0.197406931
23.23969131,6.512787628,-0.216520969
21.25782778,6.797820903,-0.407490996
21.80204392,7.849313056,-0.646442634
19.23019028,4.632104558,-0.711479892
27.22938706,9.822210708,6.730798311
26.1478258,8.316904744,3.515946168
21.7982069,7.790056535,1.046302964
21.40706402,7.647744977,0.197190074
23.435916,6.490298387,-0.21816263
21.31004121,6.742524261,-0.40809342
19.09749774,4.538197679,-0.706052055
27.27773758,9.745179923,6.735327787
25.49199315,8.02226548,3.424434679
22.03389651,7.798135294,1.056462576
21.38800423,7.567024221,0.196799738
23.71516894,6.489363046,-0.220575798
21.31536001,6.672334992,-0.407801358
21.94688225,7.749672386,-0.649314982
19.06268217,4.468183052,-0.704254737
27.31852485,9.665345797,6.738045757
26.64726947,8.296065167,3.576191205
22.33771604,7.828630155,1.069873264
21.34977691,7.479880459,0.196235923
24.13943133,6.525918925,-0.224334601
21.43506004,6.637667651,-0.409699885
19.13277405,4.422733012,-0.706339648
22.56359501,7.830149522,1.07953613
21.28760035,7.384848853,0.195455251
24.3738128,6.509105645,-0.226326127
21.5518775,6.60145005,-0.411543635
19.25148372,4.387998777,-0.710221817
27.41044492,9.509032995,6.746198722
23.64594926,8.185053871,4.848928709
25.63466389,8.836888709,3.215037588
22.74245344,7.814125556,1.086941411
21.32812441,7.325676336,0.195620058
24.66439757,6.505707116,-0.228837971
21.56628695,6.533559431,-0.411434112
19.37698493,4.354111715,-0.714355578
27.48186429,9.439448423,6.756617136
23.62637197,8.097192727,4.839796802
23.02167407,7.831178812,1.099132945
21.32304509,7.250872128,0.195368497
25.10904598,6.540665247,-0.232776184
21.75863049,6.519015861,-0.414720027
19.33561168,4.282541477,-0.71234261
27.5060838,9.353523084,6.755484648
23.74035236,8.054951045,4.858060143
25.47390153,8.606956887,3.188191655
23.20085752,7.8127978,1.106538107
22.30236302,6.616741568,0.420275899
21.32907742,7.179996553,0.195221035
25.42146309,6.538828598,-0.235485393
21.98080251,6.512157875,-0.418571887
19.28421859,4.209135243,-0.709970166
27.51341886,9.261944805,6.750275678
23.36213611,7.787387707,1.113085439
21.32159752,7.104726428,0.194952143
22.18490374,6.49865652,-0.422076849
19.12801807,4.113602637,-0.703751495
27.49088042,9.160555565,6.73781926
23.74736547,7.834928898,1.130289008
22.51731204,6.530458289,0.423563393
21.3584877,7.044290197,0.195090933
22.52838202,6.524292448,-0.428228823
19.12979508,4.052620996,-0.703356078
23.53371932,7.744050291,4.800987027
23.94602314,7.819091719,1.138597299
22.47476703,6.443435103,0.4223893
21.41041867,6.988659496,0.195368497
22.84723207,6.540726289,-0.433906195
19.15876845,3.99738267,-0.703967204
23.52002705,7.65965319,4.793377657
24.18283103,7.814395329,1.148711731
21.44032111,6.925706917,0.195446564
22.897977,6.47931256,-0.434490351
19.08871367,3.921692134,-0.700947692
23.46305645,7.561561275,4.777016422
24.49404975,7.832051107,1.162348201
21.46718457,6.861722904,0.195498614
23.2749791,6.508933151,-0.441262988
19.13395948,3.869846125,-0.702169885
23.62457396,7.533685493,4.805172702
24.67416439,7.806285574,1.169753363
21.49576218,6.798242381,0.195568008
23.46734358,6.485167434,-0.444530664
23.54646113,7.429268226,4.784626265
24.92489996,7.801570918,1.180499961
21.54037621,6.739727587,0.195784865
23.95781656,6.54166094,-0.453439174
25.25313244,7.819324296,1.194904019
21.5886537,6.682185485,0.196036411
25.48618958,7.805880549,1.204792669
21.74386995,6.657197,0.197259469
24.40520873,6.503174589,-0.461142836
21.55960933,6.586381454,-0.628901881
23.07393481,6.989700448,1.089740922
21.8407551,6.613640887,0.197953401
24.6996466,6.500540436,-0.466327307
21.64191312,6.53899913,-0.630714518
25.58792231,6.660937192,0.477680685
22.00942276,6.591067927,0.199297903
25.27395683,6.568845706,-0.476787476
21.82948102,6.522653587,-0.635594708
22.60299071,6.695900629,1.065538457
22.07460476,6.536857229,0.199705584
21.99318743,6.49813737,-0.639777703
22.31432005,6.533448203,0.201691983
22.58399733,6.537247925,0.203947259
22.8183347,6.529275882,0.205881609
22.93640528,6.486997702,0.206766365
25.19215122,7.108363212,-0.730242295
24.92350838,6.969305388,1.169753363
23.25378179,6.499777909,0.209446696
25.08096397,6.993987559,-0.72639398
24.96017992,6.897065463,1.17047589
23.58012419,6.51306728,0.21220508
24.66285899,6.79591735,-0.713677568
23.80450683,6.496507498,0.214044003
24.67877064,6.718907887,-0.713538152
24.14679739,6.510389374,0.216941176
24.66548214,6.634075804,-0.712562126
24.4555753,6.513224728,0.219534768
24.89321504,6.548058606,0.223282007
24.70572366,6.482606455,-0.712562126
25.1522444,6.533755727,0.225424526
24.56680029,6.365659047,-0.707988721
25.64194605,6.577054178,0.229631497
24.22693148,6.198338439,-0.697642726
24.25455481,6.126185337,-0.697893721
24.50504747,6.109538816,-0.704558653
24.25480336,5.968170628,-0.69683401
24.2147161,5.879578161,-0.695160789
24.16070467,5.788027729,-0.693097157
24.10830631,5.697324013,-0.691089315
24.0409767,5.603592231,-0.688663167
23.96063271,5.507416973,-0.685874504
24.22615927,5.412163852,-0.692511541
23.99663996,5.283646621,-0.685484094
23.9892919,5.204914355,-0.684814793
23.68185942,4.910433623,-0.674719793
23.97202703,4.893940748,-0.682556016
23.90656705,4.804223605,-0.680269284
23.70545782,4.688190579,-0.674134178
23.7344468,4.61830517,-0.674552483
23.51483715,4.500743468,-0.667915446
23.41359895,4.40694664,-0.664652688
23.6265425,4.372017053,-0.670313698
30.70050402,4.446454701,-0.566383687
23.97225989,4.359969232,-0.679739398
30.85061386,4.37160423,-0.568902878
24.0524376,4.298360641,-0.68163572
31.33826668,4.342672897,-0.577647058
23.75340717,4.169760964,-0.672795636
31.59121211,4.278984621,-0.582064835
23.58483315,4.065621374,-0.667664451
32.2613514,4.26900318,-0.594167975
23.59620933,3.993078206,-0.667636556
23.56397346,3.913298075,-0.666381699
31.08664433,3.919629106,-0.572079269
23.62125277,3.84838024,-0.667664451
23.60925666,3.772108181,-0.66699521
23.66022161,3.705845399,-0.668110651
23.66357482,3.632026394,-0.667887551
23.62419337,3.551830863,-0.666465325
23.7813446,3.500882824,-0.670592589
23.36752289,3.366751941,-0.658629162
23.52720606,3.316112345,-0.662840051
23.36298469,3.219896375,-0.657931966
23.32718268,3.142066483,-0.656649214
23.38824869,3.077265404,-0.658099336
23.38667303,3.004096014,-0.657792551
23.37395796,2.929597621,-0.65717904
23.43641671,2.864422049,-0.658684951
23.47884207,2.796526527,-0.659633082
23.20034789,2.691193974,-0.651573819
22.95520319,2.591409583,-0.644462687
23.44694879,2.574096721,-0.658043546
23.3950976,2.495787959,-0.656370324
23.39667838,2.423383303,-0.656203014
23.52136657,2.363384191,-0.659493667
23.34245967,2.273093422,-0.654278857
23.50755975,2.216388101,-0.658712846
23.50230258,2.143168134,-0.658378166
23.5177301,2.071843485,-0.658629162
30.62509386,1.305124164,-0.559665767
31.0595461,1.228188455,-0.567533759
31.83052854,1.160879547,-0.581553665
31.30268423,0.564971627,-0.571622876
31.58406938,-0.205204212,-0.576679555
58.54893656,-4.787912122,4.333503352
58.54887548,-4.968780195,4.334606753
58.54527959,-5.14943095,4.335489855
58.53814505,-5.329834827,4.336151706
31.42022658,-0.589790304,-0.573776988
58.43314968,-5.50108308,4.329604254
58.11821384,-5.651371611,4.30753337
45.3440572,-4.862116576,0.031041655
45.37497708,-5.147239187,0.031083859
45.29440984,-5.2788988,0.031039613
55.05128068,-6.587277766,0.037739531
55.02982116,-6.756019906,0.037738849
65.21697314,-8.592382558,2.445403707
58.0474112,-5.663279093,3.742960121
61.8924604,-8.347634454,2.321695697
61.8081529,-8.529418332,2.319503915
61.96079673,-8.744278689,2.326228034
58.36114932,-8.418970481,2.192043912
58.41687343,-4.442855351,5.346139387
58.46593027,-4.807577024,5.353227572
62.77987488,-7.522478987,1.744056404
58.37449971,-4.980406771,5.346230462
58.39961719,-5.163069498,5.349955992
56.10339315,-9.309110264,4.195267306
53.85448141,-8.973624449,0.037162998
61.98664995,-8.167198286,4.012459899
65.34164752,-8.644052626,1.818033994
53.7636001,-9.128092163,0.037119434
60.2038661,-8.120288637,3.898652698
62.06077135,-8.403836276,1.727457703
45.38307588,-4.609419596,0.824114295
45.35479895,-4.747174108,0.823861452
45.3092047,-4.882977073,0.823301466
56.42851547,-10.45210391,2.133422029
45.3158732,-5.024384932,0.82369885
56.39585077,-10.64651732,0.039065492
58.4286133,-4.662439233,4.793228709
58.54017697,-4.852129479,4.803579889
61.49523085,-7.391821017,1.118977578
58.53792674,-5.03281525,4.804639422
65.81681143,-8.088212061,3.626149325
58.42690563,-5.203894779,4.796815001
54.1232388,-8.856927482,1.512749017
58.45334092,-5.387054625,4.800319754
63.84181722,-8.24345489,3.520058303
56.13305817,-9.509595984,3.653746034
56.06821705,-9.675655794,3.651440288
61.0006787,-8.257440202,3.36613646
45.16512532,-4.750732028,0.393946452
45.24776235,-4.899824411,0.394796533
56.45619801,-10.4881911,1.583886564
45.30804667,-5.047032963,0.395455761
68.1532317,-8.184129236,5.613318525
49.52255991,-7.811293956,0.905741783
56.34543785,-9.020348999,5.207189993
53.85462539,-8.664017112,0.985454591
53.88699059,-8.838910275,0.986538382
65.2877125,-8.485042199,2.975813558
65.25741509,-8.684775037,2.975633075
61.83927117,-8.423032687,2.820936134
61.82896939,-8.614919068,2.82165878
56.33282418,-10.48701434,1.035200627
54.31523544,-8.419241717,2.484360148
49.53167806,-7.838760991,0.435009999
56.14587514,-9.202761283,4.65263518
57.95699086,-10.07948192,2.658969572
56.36203653,-10.52235286,0.497360004
25.25741417,8.987242587,3.513217875
17.94126361,10.79105562,2.736897726
58.36428587,-4.709758315,5.480182512
18.41789313,10.27505267,1.917291103
17.18222815,10.30671882,1.819615607
47.9800215,-7.261738034,1.013616076
20.86099935,7.381201304,0.407824912
20.80770425,7.339363386,-0.403062959
13.85210963,10.38367765,2.200600916
12.3447059,10.61362133,2.072665397
4.684583515,17.24117958,2.308611356
4.084632538,17.24323067,2.302573277
