x,y,z
4.398225686,-5.584407845,-0.914270047
3.4954827,-5.179998654,-0.917098355
3.371917414,-4.28592395,-0.90543585
2.743661748,-4.071994349,-0.906217245
2.711120078,-3.450714858,-0.896569039
2.23919907,-3.331573352,-0.896312405
2.256708867,-2.872959679,-0.889363733
1.884070391,-2.810502817,-0.891265625
1.910326733,-2.433299989,-0.878839324
9.306691972,-11.83951253,0.823501913
5.311287552,-7.294861672,0.248898835
10.02505487,-11.85220298,0.134657932
5.3409856,-7.338880784,-0.081428606
5.381941278,-6.370732097,-0.232659114
5.351850654,-6.825996718,-0.476898039
6.507496782,-9.682772983,-0.846283087
5.079498761,-6.486317195,-0.754260938
4.789814638,-7.137452908,-0.94077177
4.386573645,-5.604904639,-0.915418151
3.477921423,-5.188232725,-0.916662763
3.364828346,-4.304020146,-0.907073783
2.732250262,-4.082026952,-0.906580237
2.69991771,-3.458244101,-0.896368887
2.230593365,-3.34086228,-0.896966149
2.253264813,-2.886762874,-0.891492571
1.869543064,-2.807416024,-0.88846367
1.909360947,-2.447492256,-0.881845305
9.251270396,-11.84361601,0.821809261
5.274234815,-7.290874053,0.248209507
9.957761589,-11.84616141,0.134241579
5.33660879,-7.380351944,-0.081706699
5.381652749,-6.4101811,-0.233495725
5.068849832,-6.506054048,-0.453456635
6.480528655,-9.706840051,-0.846644828
5.067525654,-6.512087196,-0.755446176
4.771203409,-7.157076967,-0.94142456
4.373010823,-5.623033612,-0.916183593
3.457600752,-5.192290386,-0.915501129
3.348582008,-4.310428246,-0.906254817
2.718080339,-4.087933675,-0.906035749
2.688094153,-3.464962624,-0.895968522
2.232200859,-3.36558351,-0.901760448
2.248566097,-2.899036499,-0.89314827
1.885463261,-2.850238343,-0.90018081
1.905968652,-2.458660305,-0.883758197
8.438593513,-11.7278667,0.927238132
9.923755733,-11.87698245,0.699567248
5.243090915,-7.294845037,0.24779591
9.90406195,-11.85593569,0.134007363
5.316274972,-7.399937902,-0.081742588
5.348513423,-6.410542942,-0.232910094
7.473665543,-9.653667058,-0.671236629
6.451820376,-9.728339092,-0.846789548
5.050568561,-6.531542593,-0.755902032
4.754711554,-7.179969001,-0.942512523
4.364229635,-5.64741073,-0.917969528
3.441108902,-5.202048368,-0.915355932
3.332327934,-4.316776419,-0.905435848
2.70010626,-4.088047986,-0.904220788
2.666683922,-3.459226058,-0.89236548
2.2186433,-3.367525953,-0.900452902
2.247372253,-2.915925804,-0.896223214
1.901137933,-2.89318458,-0.911897951
1.893720423,-2.458399873,-0.881572077
8.398509937,-11.74801817,0.926789786
9.866211402,-11.88200972,0.698077192
5.218943047,-7.308455949,0.247713209
9.795465904,-11.79932388,0.133027194
8.408560429,-11.78031955,-0.129844401
5.337753452,-6.437695051,-0.233300519
8.400747859,-11.78067576,-0.655269769
8.312084351,-10.03170981,-0.840877649
6.270135557,-8.801611496,-0.887516193
5.947790612,-7.18338766,-0.94583677
4.507617941,-6.335221487,-0.92479617
4.190527591,-5.064307999,-0.910361175
3.360680466,-4.729024084,-0.906940607
3.254268949,-3.933665442,-0.899924862
2.688987668,-3.788882614,-0.902774626
2.652018946,-3.205341398,-0.893088787
2.215079323,-3.126096371,-0.892916829
2.213439585,-2.676967958,-0.882940897
1.893406769,-2.676580266,-0.896732855
1.93036469,-2.333783419,-0.894489195
8.350293279,-11.75664277,0.925444866
9.772488429,-11.84287629,0.694013347
5.191290765,-7.317095555,0.247465045
9.736311144,-11.801552,0.13271491
8.370065532,-11.80279886,-0.129808519
5.31607052,-6.451726165,-0.233216849
8.348395825,-11.7835699,-0.654003051
8.286343035,-10.06332729,-0.841392931
6.231011665,-8.803722512,-0.885797313
5.925091973,-7.200833119,-0.945735918
4.485867828,-6.34577752,-0.924323744
4.181262381,-5.084791347,-0.911733035
3.351854727,-4.747383196,-0.908485084
3.244061654,-3.945913139,-0.900445629
2.671128412,-3.788289609,-0.900676482
2.641551628,-3.212707387,-0.89287886
2.206038841,-3.133673917,-0.893143804
2.229828126,-2.713698522,-0.892795153
1.885186243,-2.682376725,-0.896732857
1.901881111,-2.313763971,-0.884575574
8.312459142,-11.7797596,0.925252701
9.708870042,-11.83958588,0.692071726
5.152116057,-7.309293533,0.246665448
9.696888806,-11.827501,0.132671548
4.968663135,-6.535322344,-0.149892864
8.311054488,-11.80749275,-0.653912571
8.246582643,-10.07788939,-0.840491173
6.197093744,-8.813014888,-0.884815089
5.899823591,-7.215125868,-0.945231365
4.466378253,-6.359509958,-0.924323743
4.172537367,-5.106032511,-0.913242046
3.34521729,-4.768968293,-0.910647421
3.229448076,-3.952796538,-0.899751235
2.666252084,-3.806114619,-0.902965361
2.626114877,-3.213982368,-0.890989868
2.198647099,-3.143619371,-0.894051701
2.209232142,-2.705512796,-0.887868053
1.877500075,-2.688938434,-0.896996665
1.90569446,-2.332957315,-0.889673976
5.54919814,-7.333322147,0.502881079
7.667693982,-11.84149969,0.524439644
9.617606638,-11.80447896,0.1320817
5.280799748,-6.489651223,-0.233412055
8.21373633,-10.10081917,-0.840297934
6.160894485,-8.818913339,-0.883505456
5.871385619,-7.225471483,-0.944222378
4.448551263,-6.375625821,-0.924678034
4.165594703,-5.12957502,-0.915162628
3.319272798,-4.762997162,-0.90755841
3.217305874,-3.962686038,-0.899751236
2.656244828,-3.816693793,-0.903537566
2.634115302,-3.244035545,-0.897076696
2.19121514,-3.153549259,-0.8949596
2.221684701,-2.737865486,-0.896244174
1.865943012,-2.689930606,-0.895413744
1.888857088,-2.326879338,-0.885142056
9.639459683,-11.89042208,1.25173279
9.617808811,-11.87642246,0.690762272
5.458278875,-7.2656835,0.164176198
5.3426269,-7.117424984,-0.162488905
9.952727005,-15.50095781,-0.662593295
8.188353412,-10.13295681,-0.840877649
6.119602935,-8.81730371,-0.881459169
5.861066902,-7.258157066,-0.946139501
4.434061505,-6.396588453,-0.925741023
4.150459897,-5.143101225,-0.915299836
3.305206876,-4.773970155,-0.907712845
3.206988684,-3.974837308,-0.900272061
2.645081084,-3.825632591,-0.903728301
2.616168552,-3.242209889,-0.894348114
2.195914935,-3.181095599,-0.900860937
2.209624397,-2.740142022,-0.894766039
1.853302987,-2.689288589,-0.893303145
1.893150291,-2.346845832,-0.890523758
5.497523037,-7.358434174,0.502280443
7.410358457,-11.59947554,0.511697364
9.511771719,-11.82197767,0.13162197
5.240880511,-6.521931098,-0.233412055
5.338434618,-7.16425276,-0.4912264
6.286128631,-9.868160347,-0.848743031
5.496697863,-7.385519212,-0.842879515
4.643086485,-7.299822103,-0.946864437
4.266051016,-5.735539367,-0.91937274
3.343711913,-5.262836664,-0.915065538
3.250540681,-4.375006913,-0.904944469
2.631249374,-4.147850319,-0.906580237
2.630581098,-3.545493166,-0.901973689
2.163587974,-3.419339744,-0.903503824
2.203159511,-2.970064766,-0.900244262
1.858399473,-2.94486166,-0.917247051
1.872782882,-2.526068135,-0.893322716
5.465399413,-7.362437901,0.501406818
5.410616869,-7.295023095,0.164085882
5.33219178,-7.195056547,-0.163511199
9.837106557,-15.5296533,-0.661227336
5.316429819,-7.180597023,-0.4912264
6.255824021,-9.887398866,-0.84874303
5.447961221,-7.367117771,-0.838868003
4.619076439,-7.311511461,-0.946538042
4.249613454,-5.750195865,-0.919627849
3.328606067,-5.274743848,-0.915355933
3.235345353,-4.382577835,-0.904453088
2.621132654,-4.160063472,-0.907487776
2.614459104,-3.546449345,-0.90017214
2.152568131,-3.425135027,-0.903285909
2.200954611,-2.986195685,-0.903082636
1.846788137,-2.946452458,-0.915973477
1.838209856,-2.495400948,-0.880478988
5.412558057,-7.338188726,0.498622148
5.383465243,-7.305148903,0.163941385
8.282088974,-12.14653844,-0.131889764
5.194550875,-6.546135844,-0.233133194
5.29733361,-7.200895399,-0.491500879
6.225991286,-9.907390066,-0.848815391
5.389364907,-7.334844832,-0.833306532
4.610360263,-7.347540728,-0.949366759
4.230191239,-5.760808007,-0.919245187
3.31503495,-5.289122708,-0.916081976
3.221300986,-4.391687676,-0.904289294
2.61200921,-4.173920979,-0.90875825
2.595460943,-3.543388087,-0.897369767
2.144117028,-3.435034659,-0.904157569
2.187190319,-2.986662897,-0.901190426
1.835184676,-2.947999828,-0.914699847
1.840203772,-2.514224594,-0.885124573
5.37467353,-7.333819554,0.497202544
7.294272136,-11.65278765,0.511065793
5.356302534,-7.315177142,0.163796874
7.334275228,-11.72624768,0.009414462
5.295028055,-7.237322296,-0.163730261
7.317213718,-11.70987619,-0.496666421
5.204916878,-6.605191128,-0.542786356
6.015405507,-8.898343011,-0.882113986
5.806640151,-7.374089274,-0.951890813
4.363566276,-6.462864292,-0.927512652
4.079682693,-5.184305618,-0.913653616
3.248583697,-4.817447321,-0.908330648
3.182936253,-4.045626154,-0.907389511
2.599032281,-3.85943226,-0.90410983
2.567720393,-3.26331274,-0.891409664
2.164319979,-3.219118219,-0.904038521
2.184818273,-2.778478945,-0.898461349
1.814786091,-2.703820154,-0.890664924
1.864801269,-2.370654889,-0.890807
7.327028464,-11.7771044,1.023196445
9.277239948,-11.82215223,0.679248084
8.182605044,-12.15477678,0.404160739
9.288209657,-11.83868349,0.130529029
8.197355022,-12.18219516,-0.13172828
9.269084371,-11.82917842,-0.419249338
7.321882116,-10.08197207,-0.685070867
6.031608204,-9.730085172,-0.830438384
5.943586279,-8.194029874,-0.926757197
4.576176474,-7.393441634,-0.951651525
4.194181714,-5.785852279,-0.919117632
3.283559769,-5.311046615,-0.916372369
3.185614888,-4.399385504,-0.901832451
2.592031224,-4.199074146,-0.910754708
2.569077568,-3.552895357,-0.89576837
2.135280092,-3.468071807,-0.909387697
2.162561665,-2.991365509,-0.898588564
1.813519502,-2.953436222,-0.912916832
1.817981796,-2.516112145,-0.881845306
7.23686762,-11.71214241,1.015618906
9.226797903,-11.8324395,0.678209533
8.18584139,-12.24048182,0.406173558
5.395065608,-6.920122736,0.076115912
8.132712824,-12.16655131,-0.131288711
9.190374899,-11.80313841,-0.417325151
8.384641323,-11.62016813,-0.787839765
5.982904016,-9.717968786,-0.827833722
6.135011042,-8.512761611,-0.960672955
4.558157522,-7.415067795,-0.95263071
4.177570553,-5.800302535,-0.919372741
3.262073225,-5.3126641,-0.914920341
3.170950703,-4.407536469,-0.901504864
2.579136525,-4.207006677,-0.910754708
2.562166808,-3.566330298,-0.897169556
2.128194203,-3.48043472,-0.910913157
2.136369128,-2.974311328,-0.891492569
1.805456923,-2.960637359,-0.913426273
1.815863605,-2.529492172,-0.884578059
8.440645216,-11.74254808,0.790795533
7.886615945,-11.87170212,0.393131674
5.398917979,-6.969052809,0.07647155
8.01454248,-11.16866704,-0.250989792
8.446688476,-11.78216847,-0.797062571
5.962426932,-9.751594687,-0.829136024
6.112923734,-8.53721157,-0.961311143
4.547299978,-7.448531674,-0.955133032
4.162641538,-5.817124761,-0.92001057
3.254000607,-5.336162924,-0.917243553
3.165444756,-4.428479717,-0.903797914
2.566728926,-4.21573957,-0.910936205
2.551213508,-3.574174022,-0.897169555
2.122065573,-3.494455337,-0.912874449
2.142473091,-3.002205649,-0.897878912
1.796365212,-2.966162621,-0.913426273
1.809770335,-2.537400643,-0.885397861
8.403999017,-11.76757571,0.790740935
8.030196563,-12.16866649,0.402147949
5.383001543,-6.992714969,0.076549618
7.988365471,-11.20459988,-0.251245347
5.894321214,-9.695551874,-0.408131292
8.407605961,-11.80396076,-0.796788091
5.939728527,-9.78177616,-0.830148944
6.092475658,-8.564040182,-0.962222855
4.538857382,-7.486248237,-0.958179366
4.145924718,-5.831484789,-0.920265678
3.240689459,-5.35119861,-0.918114793
3.162124964,-4.452647995,-0.906746198
2.537500666,-4.196665459,-0.905128268
2.536835422,-3.57718922,-0.895968522
2.110830733,-3.500113646,-0.912656534
2.138310119,-3.015898013,-0.90000775
1.786758378,-2.970830989,-0.913171523
1.795303277,-2.53352257,-0.882118592
7.487037029,-9.78578859,0.556926538
5.19084359,-7.322252279,0.162153127
5.9132698,-9.785022927,0.007782196
8.358498188,-11.80017666,-0.264023957
5.867130949,-9.717867019,-0.40831103
7.393183628,-9.684116582,-0.786386427
5.917475935,-9.049625903,-0.888007335
5.029664746,-6.592982302,-0.841001677
4.291609016,-6.57143928,-0.933536237
4.006886254,-5.255727717,-0.915299837
3.196435646,-4.900640093,-0.914663165
3.116326269,-4.088491111,-0.906174292
2.539525945,-3.898845158,-0.904109829
2.53336549,-3.323309858,-0.897076696
2.123181562,-3.265001825,-0.907670114
2.14194171,-2.811665381,-0.89846135
1.790429939,-2.758037865,-0.899371076
1.820660898,-2.389064274,-0.887124805
8.312651247,-11.79198916,0.788939087
7.72083638,-11.85750364,0.390291662
5.344834091,-7.031981712,0.076619012
8.010616927,-12.30817886,-0.131746221
9.423221508,-15.71667911,-0.659142484
7.35318529,-9.693236932,-0.785291489
5.900541934,-9.084453536,-0.889644317
5.0130204,-6.613139067,-0.841607081
4.281696137,-6.600403427,-0.935780353
3.990145031,-5.267205944,-0.915162627
3.182460002,-4.912081947,-0.914972095
3.106741261,-4.101957947,-0.907042314
2.535551089,-3.918980634,-0.906970912
2.537326242,-3.34977151,-0.902114121
2.101529452,-3.253502333,-0.902676674
2.138569958,-2.825178382,-0.900678582
1.779346378,-2.759464714,-0.898051966
1.814480741,-2.396167772,-0.887691286
8.87928589,-11.74146614,1.203808747
7.695278985,-11.89792171,0.390843124
5.941685966,-9.969730932,0.007899953
5.379061519,-7.131317703,-0.249195946
8.245434776,-11.80471496,-0.791682596
5.882584913,-9.891751295,-0.834851751
6.020803242,-8.630368933,-0.963408094
4.492602235,-7.566169103,-0.963075232
4.094346693,-5.872650074,-0.920775953
3.199881069,-5.395265224,-0.9205832
3.115936027,-4.474276838,-0.905272055
2.507286211,-4.234227373,-0.908213762
2.526179741,-3.632561089,-0.903975393
2.074556736,-3.51267014,-0.910913158
2.101032806,-3.021888997,-0.895986701
1.73578384,-2.947154854,-0.900944943
1.782887644,-2.56573779,-0.887584039
5.477169636,-7.289074507,0.74559524
7.665224351,-11.93156701,0.391173989
5.94061155,-10.03782671,0.007939432
9.869826037,-15.38564462,-0.827818718
5.488124561,-7.327591801,-0.590900895
5.847378167,-9.124683852,-0.890053622
4.953272181,-6.618285395,-0.838378297
4.251286413,-6.642442263,-0.938024408
3.964276884,-5.300315685,-0.916671698
3.157581337,-4.939841492,-0.916516572
3.082103247,-4.121731896,-0.907215882
2.509344113,-3.931155062,-0.906207972
2.517895769,-3.366843294,-0.902533917
2.073675811,-3.254016312,-0.899272115
2.109590897,-2.822720538,-0.895751424
1.768076239,-2.779282949,-0.900953998
1.804338029,-2.413400913,-0.889957217
8.820789393,-11.81409528,1.205683313
5.323522794,-7.139395816,0.077252222
5.342367915,-7.173809541,-0.249530596
9.826334811,-15.4217501,-0.828135398
5.397699901,-7.253130263,-0.583558139
5.835946769,-9.168643604,-0.892590991
5.372866277,-7.225024371,-0.913145172
4.228756793,-6.65210138,-0.937551981
3.963949965,-5.333918693,-0.920375708
3.152473068,-4.965353089,-0.919451147
3.072380319,-4.135121001,-0.908083905
2.492015297,-3.930544467,-0.904300563
2.508720956,-3.37612185,-0.902953655
2.063682932,-3.260363059,-0.899272116
2.102654391,-2.83151375,-0.896490521
1.761602198,-2.787955921,-0.902009298
1.786059147,-2.404297812,-0.884575574
8.774407274,-11.82749426,1.204297744
6.57051964,-11.2497587,0.484318149
5.925782916,-10.15441245,0.008002736
5.301901431,-7.165256024,-0.24866612
9.786988059,-15.46448576,-0.828814056
5.362369366,-7.252003121,-0.582141098
5.820572216,-9.206723227,-0.894555441
5.340032398,-7.227071058,-0.911328959
4.204087404,-6.658326543,-0.936607127
3.953451045,-5.354023557,-0.921747511
3.139332523,-4.978344587,-0.92006895
3.057924654,-4.142150218,-0.907563079
2.479421973,-3.937340802,-0.904109829
2.49777051,-3.383015897,-0.902743785
2.060927272,-3.278222053,-0.9024497
2.102013425,-2.848869435,-0.899939484
1.74637499,-2.782726187,-0.898579587
1.780952619,-2.412852367,-0.885708538
8.688404633,-11.78696696,1.197451435
6.535974949,-11.26986353,0.484318149
5.93972482,-10.25041544,0.008063996
5.278709682,-7.179877455,-0.24861033
9.742156522,-15.49866816,-0.829040256
5.349548772,-7.281287875,-0.583171663
5.80130885,-9.23888554,-0.895946912
5.316068522,-7.241014056,-0.911026286
4.179419719,-6.664463246,-0.935662216
3.946381885,-5.378905551,-0.92394251
3.121946714,-4.984602903,-0.919451147
3.047532237,-4.15468897,-0.908257474
2.46733055,-3.944928903,-0.904109828
2.492006489,-3.396969912,-0.904422909
2.047249432,-3.278746799,-0.900860936
2.092117383,-2.853741672,-0.899446792
1.739360238,-2.790526705,-0.899371077
1.779780571,-2.426812002,-0.888824252
8.629234457,-11.78220834,1.19427272
6.49239252,-11.27427496,0.483649474
8.244583096,-12.17588238,0.265655132
5.945652277,-10.33359749,0.008115048
8.26004818,-12.20881715,-0.269135383
6.571474104,-11.43235643,-0.474307945
7.975044766,-11.79909847,-0.783008749
5.875165956,-10.23339072,-0.855978081
5.887711812,-8.72170752,-0.963408093
4.374037231,-7.630742238,-0.962640058
4.022088178,-5.96189635,-0.92498565
3.122153249,-5.453159028,-0.922180426
3.062924892,-4.545271034,-0.91002201
2.442529605,-4.273042668,-0.908395258
2.478366825,-3.683076301,-0.906977977
2.011730729,-3.528817411,-0.906990577
2.059313335,-3.061017132,-0.898115481
1.713312421,-3.013785611,-0.913171525
1.740637857,-2.588792648,-0.886217664
7.301203124,-11.74398967,0.887466396
6.441404084,-11.2655126,0.482423526
8.189889796,-12.17540182,0.265095176
5.940708069,-10.39867717,0.008151804
8.203590674,-12.20588675,-0.26851472
6.425902357,-11.25891389,-0.466291984
7.924336571,-11.80195739,-0.781581397
5.847694182,-10.25829974,-0.856556843
5.846505634,-8.718225415,-0.961037617
4.350605484,-7.644125709,-0.962640058
4.003778275,-5.974208227,-0.924985651
3.106875335,-5.465292544,-0.922616076
3.046221929,-4.550547795,-0.909203042
2.433777107,-4.288213374,-0.910028724
2.469777941,-3.694735119,-0.907978857
2.006183201,-3.544315461,-0.909387697
2.0434341,-3.057626711,-0.89527705
1.700730849,-3.013132828,-0.911388509
1.738030135,-2.602119853,-0.888950358
7.266711446,-11.76888093,0.887658502
6.396451198,-11.26697199,0.481643391
8.139165519,-12.1805186,0.264661642
5.924072519,-10.44381865,0.008172905
8.257407286,-11.45073069,-0.393844498
7.234026825,-11.74711083,-0.624777403
7.358124334,-10.21081089,-0.812343833
5.734307876,-9.32159904,-0.89881169
5.335242024,-7.409123966,-0.925959514
4.117384963,-6.701801387,-0.935544139
3.890344036,-5.406155439,-0.922433441
3.073870682,-5.009756919,-0.918833344
3.009739489,-4.183361261,-0.908431102
2.429379341,-3.964959408,-0.903537565
2.452641505,-3.408650808,-0.901484458
2.017494127,-3.298280963,-0.90108791
2.073684842,-2.883892258,-0.902895755
1.717624584,-2.813002984,-0.901481619
1.768569954,-2.45866077,-0.894489194
8.489029003,-11.8174188,1.189871631
5.261412347,-7.332414197,0.407919099
8.097888166,-12.19960121,0.264535191
5.925371984,-10.52119365,0.008219191
8.44405153,-11.78560147,-0.404469353
9.577812448,-15.66051612,-0.831347552
7.689848125,-10.74045974,-0.852600333
5.703603875,-9.335746451,-0.898484282
5.506414661,-7.696518545,-0.95976101
4.104562492,-6.72711695,-0.937315768
3.87489227,-5.41967702,-0.92270786
3.061571144,-5.024226338,-0.919760078
2.995172998,-4.190171507,-0.907910277
2.423327112,-3.982457086,-0.905826444
2.439897927,-3.412977895,-0.900644868
2.016467046,-3.319437409,-0.905173393
2.06313732,-2.887874854,-0.902156716
1.691981472,-2.790216889,-0.892511655
1.763249145,-2.467196236,-0.895622161
8.437100521,-11.8215034,1.187671028
5.238312528,-7.34770786,0.407873948
8.067576948,-12.23523887,0.264770033
5.933084655,-10.61089516,0.008275007
8.075501712,-12.25749594,-0.268003551
6.339550726,-11.34898812,-0.467586061
7.775305632,-11.81350522,-0.777573819
5.744770439,-10.29687848,-0.8553269
5.779145707,-8.791637919,-0.963225763
4.276196887,-7.676896298,-0.961769711
3.950802042,-6.014120602,-0.925495926
3.055480546,-5.49192666,-0.922325682
3.006375625,-4.581690556,-0.909858215
2.413306546,-4.344818739,-0.917288629
2.43405713,-3.714851182,-0.90737834
1.967802324,-3.552384938,-0.906772662
2.028516279,-3.096623495,-0.901190424
1.667783549,-3.019347218,-0.908586556
1.714007232,-2.618006048,-0.888950358
8.370815285,-11.80505558,1.183432781
8.36840462,-11.81476153,0.654413511
8.037123453,-12.27080523,0.265004845
5.919917309,-10.66401972,0.008302234
8.051545696,-12.30312848,-0.268459944
5.821220194,-9.650720456,-0.510408309
7.635320167,-10.80374056,-0.853888509
5.641069858,-9.362030728,-0.897665791
5.462529533,-7.735036698,-0.960366415
4.057064844,-6.741965526,-0.93589843
3.835281986,-5.434448377,-0.92119879
3.024069346,-5.031908023,-0.917752176
2.972812823,-4.213298751,-0.908951868
2.411978705,-4.019135887,-0.910785729
2.416091644,-3.423890402,-0.899595409
1.982547518,-3.309190877,-0.89904514
2.049288537,-2.906024095,-0.903881199
1.692156677,-2.829520201,-0.901745486
1.744207659,-2.472483299,-0.893639415
8.268547783,-11.73698174,1.174059832
7.991260311,-12.28283417,0.264733912
9.48717255,-15.83798838,-0.836097804
7.610167174,-10.83854842,-0.854790267
5.61897399,-9.390410577,-0.898729853
5.461058563,-7.783521655,-0.964301513
4.04196479,-6.763757046,-0.937197632
3.812336057,-5.437267907,-0.919689779
3.008111054,-5.040313748,-0.91759774
2.959872621,-4.222399306,-0.908951867
2.40616991,-4.037479216,-0.913265343
2.402208435,-3.426483273,-0.898336082
1.985830318,-3.337856031,-0.905173394
2.044812336,-2.918647704,-0.905852029
1.690363253,-2.846309128,-0.905438949
1.732210502,-2.471539932,-0.891373483
7.651473779,-11.82900512,0.770374506
7.980130757,-12.34844078,0.265618982
6.50372027,-11.89880168,-0.487751772
7.603712734,-10.90031303,-0.857817587
5.592683644,-9.411889886,-0.899139099
5.443411228,-7.809217326,-0.965411411
4.024742098,-6.782103193,-0.938024408
3.797335276,-5.451376747,-0.92010129
2.994144744,-5.052068548,-0.918061106
2.94915576,-4.234692944,-0.909646262
2.389272258,-4.03723901,-0.911548669
2.395037506,-3.438650731,-0.899595408
1.977066763,-3.346448241,-0.905854317
2.034741,-2.923316405,-0.905359335
1.681623007,-2.851481804,-0.90543895
1.734484185,-2.491009407,-0.896471885
7.600034463,-11.82890205,0.768845647
7.826626974,-12.19280471,0.261753472
7.881293124,-12.28834271,-0.266543148
7.585014397,-10.94491552,-0.859492239
5.566820779,-9.434153374,-0.89963024
5.420560019,-7.827516973,-0.965613174
4.009461798,-6.803829416,-0.93932361
3.781156549,-5.463815424,-0.920238499
2.98113664,-5.065488229,-0.918833345
2.939512093,-4.248579888,-0.910687852
2.376377645,-4.04370385,-0.911357934
2.379469545,-3.438746284,-0.897706359
1.971225968,-3.360058199,-0.907897088
2.03623613,-2.944691028,-0.910040088
1.665067973,-2.843309936,-0.901217809
1.72901612,-2.499473874,-0.897604851
6.467679808,-11.98478944,0.50627352
5.928612724,-10.99552411,0.008503034
7.851613843,-12.32511367,-0.266816971
7.494004071,-11.77554327,-0.767417724
5.603159238,-10.41540753,-0.857931504
5.576302802,-8.77335566,-0.95173816
4.150410737,-7.727575021,-0.960028958
3.871379639,-6.094945454,-0.928685131
2.994264546,-5.581742708,-0.929585766
2.945783629,-4.643093861,-0.912970234
2.338948268,-4.367455492,-0.914384633
2.386225725,-3.766648484,-0.910981441
1.921815444,-3.598508269,-0.910913157
1.985976929,-3.135583476,-0.903555719
1.622181946,-3.046281468,-0.909095996
1.682393828,-2.657806853,-0.893596002
6.428521195,-12.00017186,0.506087792
5.917973621,-11.05686219,0.008536387
8.286695896,-12.10691827,-0.409293753
6.648923051,-11.41525633,-0.598266211
7.541940037,-11.02666815,-0.862261888
5.512838891,-9.475024741,-0.900285057
5.384779634,-7.87869999,-0.96783297
3.979611922,-6.84890911,-0.942158229
3.747001426,-5.486095554,-0.92010129
2.940081671,-5.066593919,-0.915744334
2.913387868,-4.266536736,-0.910687853
2.352997602,-4.060756985,-0.911930139
2.366595981,-3.46539286,-0.900854736
1.967639575,-3.401595853,-0.915841194
2.017036956,-2.955528703,-0.909547396
1.646625806,-2.851802452,-0.900690188
1.714728588,-2.511620134,-0.898171392
6.391674951,-12.01983753,0.506087792
8.277270702,-12.15712877,0.127579806
6.517855948,-11.25779787,-0.116702076
7.112452246,-13.40067112,-0.545696785
7.36639487,-11.73335665,-0.761708374
5.540080437,-10.45135493,-0.858076224
5.500146835,-8.771969931,-0.947908978
4.107101589,-7.760803092,-0.961008083
3.848128171,-6.14127806,-0.932129387
2.964582699,-5.60875763,-0.931037795
2.914621821,-4.656900137,-0.912151266
2.311188246,-4.379984881,-0.914021638
2.358395898,-3.773741366,-0.90917989
1.901971693,-3.61455106,-0.91200279
1.950739826,-3.122165936,-0.896223214
1.576054,-3.003942736,-0.893558079
1.668601723,-2.672159295,-0.89496232
7.323534835,-11.70305428,1.259812907
6.354768335,-12.03939,0.506087791
7.333143839,-11.73844612,0.25004855
5.936315427,-11.25660469,0.008662312
7.298434392,-11.6928743,-0.251665232
6.380525142,-12.11122007,-0.492388805
7.321381403,-11.74149763,-0.760775084
5.507990321,-10.46830195,-0.858076224
5.467944613,-8.780350199,-0.946997266
4.081885791,-7.770727292,-0.960681689
3.827696609,-6.150528696,-0.931746724
2.944603402,-5.612569507,-0.930166613
2.90500798,-4.67336062,-0.913625407
2.298195897,-4.387926301,-0.914203135
2.340606832,-3.770969802,-0.906777823
1.889969806,-3.618639065,-0.911566903
1.951910466,-3.145473187,-0.901190425
1.57844347,-3.031063651,-0.900180811
1.651776979,-2.663368798,-0.890316735
7.295481318,-11.73815494,1.261175947
6.316874847,-12.05705925,0.506013465
7.30500337,-11.77363289,0.250319483
5.920766888,-11.31108864,0.00869022
7.276223486,-11.73730519,-0.252139864
6.434716805,-11.28504917,-0.588313189
7.465143641,-11.13291312,-0.865160343
5.447103438,-9.563466755,-0.903886489
5.391231519,-8.046118281,-0.982261705
3.914934664,-6.882656802,-0.941803937
3.710127923,-5.5409263,-0.92353094
2.906013429,-5.115774755,-0.919760077
2.872352731,-4.290714741,-0.910167027
2.322304144,-4.094195381,-0.914600546
2.352551217,-3.513838478,-0.907781212
1.930490275,-3.409391843,-0.913117501
1.976815024,-2.954635308,-0.903634852
1.629326227,-2.882791482,-0.905702817
1.695273709,-2.532874644,-0.900154082
7.27355781,-11.78336192,1.263629631
7.868742751,-11.7862281,0.640551259
6.383092048,-11.2573365,0.356956274
8.160032948,-12.22531059,0.127501739
6.400653756,-11.29382145,-0.116459858
6.404493557,-11.31256063,-0.588720348
7.452529258,-11.18815416,-0.86767238
5.419699861,-9.583604174,-0.904213898
5.379199718,-8.081668759,-0.984582411
3.896242282,-6.89895865,-0.942394442
3.693111112,-5.552282813,-0.923530941
2.898070429,-5.138435632,-0.922231287
2.864628745,-4.307707539,-0.911903013
2.306360502,-4.095313493,-0.913265342
2.337428275,-3.514526435,-0.90610203
1.922884891,-3.420392067,-0.914479347
1.969350471,-2.963107783,-0.904373892
1.619530263,-2.886094389,-0.90517514
1.686433014,-2.536466356,-0.899587598
7.836411118,-11.81614101,0.640867343
6.34165964,-11.2646719,0.356570244
5.918623421,-11.47785772,0.008790281
8.124845557,-12.27011109,-0.41054867
6.371715156,-11.3356397,-0.588901308
7.444051269,-11.25008068,-0.870699641
5.392711821,-9.60453151,-0.904623143
5.360965043,-8.10809279,-0.985793161
3.889627925,-6.936863871,-0.945937759
3.677697724,-5.566066164,-0.92394251
2.893394682,-5.167129716,-0.925783664
2.851942362,-4.317297649,-0.912076583
2.292348249,-4.099799287,-0.912693136
2.332024283,-3.52983894,-0.908200949
1.913806274,-3.428826438,-0.91516027
1.969862252,-2.983694255,-0.908808299
1.6172405,-2.902846248,-0.908868661
1.678643307,-2.54162846,-0.899587599
7.792978546,-11.82928282,0.640280356
8.081015615,-12.2693033,0.127441017
6.277101483,-11.23598277,-0.115464095
8.069035192,-12.26742012,-0.409628404
6.254148653,-11.20683877,-0.581210342
7.427589419,-11.30038498,-0.872825202
5.369043255,-9.631476805,-0.905605368
5.328417927,-8.112860044,-0.984380591
3.864946652,-6.942691096,-0.945110983
3.665495657,-5.584776405,-0.925177162
2.872247753,-5.166483321,-0.924084751
2.839223848,-4.326850294,-0.91225021
2.279759328,-4.106813043,-0.912693137
2.322256794,-3.538611587,-0.908620744
1.896669188,-3.422755906,-0.911982628
1.965482447,-2.997017726,-0.911025531
1.611128237,-2.912858488,-0.910451581
1.66978563,-2.545162586,-0.899021115
7.747350911,-11.83892487,0.639512767
8.029649176,-12.27311819,0.12722416
5.84441402,-9.691227701,-0.206629811
7.398886499,-11.3323103,-0.873533722
5.338504151,-9.64616003,-0.905441694
5.29045614,-8.109171292,-0.981958973
3.846990894,-6.960599263,-0.945937758
3.6510494,-5.600144238,-0.925863091
2.862112625,-5.185650728,-0.925938158
2.826473668,-4.336365479,-0.912423779
2.276151344,-4.130122496,-0.916317217
2.314059333,-3.549814874,-0.909670203
1.887567594,-3.431118529,-0.912663551
1.956807556,-3.003845679,-0.911271878
1.608683872,-2.929624647,-0.914145103
1.661445712,-2.549470077,-0.898737874
6.682393316,-11.13773813,0.710258095
6.234819745,-11.31730891,0.356404812
6.54325857,-11.88306788,-0.121698852
7.368428641,-11.3616552,-0.874049005
5.309364769,-9.663366002,-0.905523531
5.261224571,-8.11868448,-0.981151807
3.829439223,-6.979333583,-0.946882612
3.636543354,-5.615476522,-0.926549022
2.846189844,-5.194407141,-0.925938158
2.809410065,-4.339229949,-0.91120862
2.258757957,-4.128474549,-0.914409809
2.303157768,-3.556897536,-0.909670203
1.884501152,-3.450569062,-0.916295142
1.94442362,-3.004952733,-0.909793742
1.5996883,-2.934546174,-0.914145103
1.657264196,-2.560190969,-0.900720564
7.64963634,-11.8476334,0.637435665
6.54178471,-11.96713894,-0.122353721
6.974735939,-11.73977654,-0.750783676
5.277914571,-10.57613525,-0.857425102
5.290329195,-8.916298976,-0.949185353
3.937568792,-7.903747264,-0.966447961
3.714465368,-6.264579089,-0.936721805
2.832655304,-5.693109905,-0.933215809
2.823084201,-4.766920222,-0.919849444
2.228373958,-4.486468067,-0.924548534
2.265572104,-3.831326209,-0.909380044
1.82048977,-3.675881754,-0.915925372
1.89330902,-3.202554712,-0.905684497
1.529686972,-3.098076463,-0.910114879
1.612307511,-2.728867862,-0.900427768
6.624096972,-11.19571843,0.711350112
6.481488953,-11.93779048,0.374685527
7.949814236,-12.39869235,0.127761958
6.658967174,-11.275301,-0.23908743
6.918898888,-11.72758051,-0.748642678
5.2467704,-10.59495959,-0.857642123
5.27053248,-8.94535689,-0.950552921
3.908015311,-7.905096485,-0.965142439
3.699254313,-6.282782857,-0.937742356
2.815613647,-5.702660928,-0.933361064
2.810446552,-4.778960415,-0.920504619
2.214599155,-4.493283558,-0.924548534
2.250830516,-3.83318967,-0.908179011
1.811786513,-3.686705134,-0.917232861
1.881999128,-3.205834649,-0.904974905
1.515069503,-3.092334202,-0.907058234
1.590298139,-2.710570421,-0.892776143
6.587694326,-11.21254438,0.711131721
6.577584849,-11.20608272,0.234749021
6.452582504,-11.97800101,-0.122057687
5.822677441,-11.83351996,-0.474379857
6.805664231,-11.61693694,-0.740243251
5.216000217,-10.61458724,-0.857931504
5.242058047,-8.959765668,-0.950370591
3.886371275,-7.922403841,-0.96579517
3.683465802,-6.300095671,-0.938635293
2.801587403,-5.718380143,-0.934522641
2.798259027,-4.791819586,-0.921323586
2.200371493,-4.499173324,-0.924367038
2.236592214,-3.83584492,-0.907178187
1.796617475,-3.684351164,-0.91527157
1.868240296,-3.20487812,-0.903082636
1.515722273,-3.117840304,-0.913171523
1.583427367,-2.717930136,-0.893596002
6.55326364,-11.23270272,0.711131721
6.534615109,-11.21152478,0.234441953
6.412503068,-11.99156875,-0.121994886
9.795791749,-15.50698014,-0.511693878
6.641460217,-11.41681419,-0.726189429
5.202644264,-10.66998466,-0.861114928
5.220548054,-8.98613855,-0.951464634
3.862047318,-7.934289865,-0.965795171
3.663123971,-6.309651549,-0.938380185
2.797007448,-5.753643303,-0.938878726
2.78552408,-4.803795426,-0.921978701
2.187846027,-4.508556696,-0.924911526
2.226777041,-3.846080449,-0.907978857
1.782755101,-3.684574545,-0.913964081
1.85401843,-3.203026561,-0.900953856
1.513291933,-3.137282506,-0.917501799
1.572673079,-2.718611968,-0.892229627
6.516268752,-11.24843438,0.710858731
6.498685622,-11.22892332,0.234387757
6.385528734,-12.02973395,-0.122183274
9.727982837,-15.50478384,-0.510634226
6.600908888,-11.42762538,-0.725585515
5.172490915,-10.69128281,-0.861549029
5.199920915,-9.014189207,-0.952741067
3.842010266,-7.955052997,-0.966883194
3.644244342,-6.321719189,-0.938507738
2.784070576,-5.772000029,-0.940475952
2.773234249,-4.816593582,-0.92279767
2.176563334,-4.520563918,-0.926000503
2.219361761,-3.860538619,-0.909780408
1.774821603,-3.697065325,-0.915707457
1.840793725,-3.20280268,-0.899298156
1.506581863,-3.148016503,-0.919284815
1.569116256,-2.731765221,-0.89496232
7.326080721,-11.7241235,1.130536878
7.286635789,-11.67459604,0.622038236
6.333573361,-12.01466025,0.374630362
7.323809695,-11.73689215,0.120007245
6.460858688,-11.25298487,-0.236915079
5.365433997,-11.16244248,-0.445479234
6.7287595,-11.73191773,-0.743592019
5.142687699,-10.71339571,-0.86205549
5.174715894,-9.03442095,-0.953196924
3.821882029,-7.97576685,-0.967971157
3.625817933,-6.334591512,-0.938762847
2.768484763,-5.78497643,-0.941201995
2.762361071,-4.831930201,-0.924108017
2.163108062,-4.528107763,-0.926182
2.209935871,-3.871583833,-0.91078123
1.76389047,-3.703374199,-0.915925372
1.836737968,-3.218561663,-0.90213653
1.499820281,-3.158738621,-0.92106783
1.559298286,-2.734059684,-0.894142519
6.432270857,-11.26219448,0.709220676
5.381499625,-11.2616286,0.463997376
6.428177274,-11.26598235,0.234333577
5.778742379,-12.10432214,0.009129939
6.42184795,-11.26493576,-0.236750779
5.341916826,-11.20140175,-0.446377893
7.178911728,-11.60807927,-0.880940911
5.097862382,-9.769850138,-0.905032448
5.134309218,-8.30850174,-0.990535544
3.700706763,-7.102227607,-0.952551848
3.52032216,-5.700700744,-0.927920882
2.737636904,-5.261340187,-0.927173762
2.734206004,-4.428725811,-0.917458106
2.182253753,-4.200418157,-0.919750507
2.234464359,-3.618846185,-0.913028449
1.801450185,-3.473814702,-0.911982628
1.871812788,-3.033642508,-0.906098432
1.528765334,-2.953658653,-0.90966015
1.607445477,-2.604165815,-0.903836276
7.227434014,-11.7395022,0.623121908
6.284151375,-12.10031426,0.376091719
7.251655462,-11.78160958,0.120007245
6.260258576,-12.06048154,-0.121905181
9.612087862,-15.63794402,-0.512084288
6.424684146,-11.36273336,-0.717680211
5.077706755,-10.74655222,-0.862200209
5.122611822,-9.072071905,-0.95383511
3.782625157,-8.01974657,-0.97047348
3.586393948,-6.355856106,-0.938635293
2.731671817,-5.799169438,-0.940766346
2.730723383,-4.845351276,-0.923452843
2.134028027,-4.538625392,-0.925637511
2.170763587,-3.857747234,-0.904375756
1.742376632,-3.716778413,-0.916579116
1.823147728,-3.240779872,-0.905211475
1.472222285,-3.150360395,-0.915973478
1.524579017,-2.711712761,-0.883758198
5.320379544,-11.31161815,0.464703214
6.361380556,-11.30956944,0.234423892
5.890290743,-11.43338093,-0.115383353
9.593233076,-15.71513923,-0.513645989
5.8665135,-11.39993261,-0.580622223
7.095597936,-11.63231494,-0.879459438
5.039186718,-9.803605115,-0.90527796
5.075983301,-8.327955513,-0.989122914
3.667034425,-7.144236735,-0.955150253
3.494036673,-5.736575316,-0.930253033
2.697641193,-5.263092058,-0.924548059
2.710053502,-4.450466423,-0.918499698
2.156439477,-4.213728894,-0.919750506
2.209674691,-3.628313285,-0.91197899
1.784088624,-3.492608396,-0.914025397
1.855178939,-3.048382296,-0.907083818
1.51368003,-2.968998636,-0.911506881
1.583955502,-2.601692467,-0.899587599
5.283960321,-11.32426524,0.46455462
6.32714067,-11.3299057,0.234441953
5.871118828,-11.4825597,-0.115697335
5.947018206,-9.809644826,-0.320028288
5.832874511,-11.42054541,-0.580757943
5.940451798,-9.806147706,-0.740010973
5.013161966,-9.827009042,-0.906014673
5.057622044,-8.355404897,-0.990535544
3.646000542,-7.157222771,-0.955386466
3.468730554,-5.734554939,-0.928195243
2.686856911,-5.281911089,-0.926401524
2.702502321,-4.468871828,-0.92058282
2.144835182,-4.222950775,-0.920322769
2.193978724,-3.627546018,-0.910089999
1.773365121,-3.498065661,-0.914025399
1.851332299,-3.063183542,-0.909793742
1.502822206,-2.970185936,-0.910451582
1.576958544,-2.608180979,-0.90015408
5.17867257,-11.18806793,0.458313507
5.148344041,-11.13324911,0.008349201
5.84161847,-9.70281191,-0.315956843
6.880048215,-11.43620421,-0.861424562
4.982539234,-9.841453499,-0.905932776
5.032477067,-8.371734689,-0.990636396
3.62357732,-7.167488744,-0.955268389
3.449080442,-5.741773052,-0.927646521
2.67420167,-5.297185128,-0.927637129
2.682695005,-4.467010931,-0.918499697
2.130985604,-4.227757908,-0.919941241
2.176798351,-3.624201919,-0.907571286
1.75999865,-3.498269647,-0.912663551
1.844419593,-3.073003961,-0.911025532
1.48721033,-2.961852492,-0.906494251
1.57191148,-2.617940082,-0.901853529
5.148683032,-11.2041148,0.909606085
6.252681508,-11.35975581,0.234261321
6.543150842,-11.89828842,-0.247922925
6.423697052,-11.69363425,-0.733545716
4.95125729,-10.82075214,-0.863213131
5.00275548,-9.119408668,-0.952285211
3.712835381,-8.128855637,-0.978089284
3.518616827,-6.418521997,-0.941441777
2.654963609,-5.820552545,-0.938878727
2.666320346,-4.869843852,-0.921814909
2.071244205,-4.549256378,-0.922552018
2.143467777,-3.921062372,-0.912983145
1.699861879,-3.744989895,-0.918322493
1.797220066,-3.288486739,-0.912307467
1.430661206,-3.162022318,-0.914190405
1.506403545,-2.758076847,-0.892776142
5.123384998,-11.23982201,0.91122459
5.056494931,-11.10231694,0.453521204
6.635196339,-11.16000577,0.112625522
6.515719464,-11.93498024,-0.248269764
6.383488854,-11.70539655,-0.733051652
4.920509827,-10.84134047,-0.863647231
4.975230208,-9.135588253,-0.952376346
3.680084897,-8.123004253,-0.976022136
3.501753273,-6.434513758,-0.942207161
2.637909699,-5.830473173,-0.939169121
2.653251803,-4.881467741,-0.922470082
2.060515306,-4.562759481,-0.924004045
2.129091556,-3.923314342,-0.911982265
1.68916572,-3.75196722,-0.918758322
1.790366023,-3.299963049,-0.913963165
1.428871932,-3.184041749,-0.919284815
1.502061319,-2.770296155,-0.895235607
5.083125824,-11.24276511,0.910194621
5.027758004,-11.12961663,0.454004151
6.61566999,-11.2052815,0.112877076
6.480025651,-11.95667201,-0.248306272
5.045521314,-11.19236069,-0.441597065
6.658502802,-11.3021462,-0.846674559
4.883794553,-9.870815453,-0.904459468
4.950670211,-8.409981475,-0.98972826
3.553937257,-7.193413275,-0.954323477
3.40814217,-5.793765249,-0.930938963
2.633639752,-5.338408476,-0.930571705
2.639970219,-4.48896607,-0.917978873
2.091550367,-4.246311378,-0.919750506
2.152767855,-3.660095659,-0.911559253
1.720422339,-3.499462375,-0.908804986
1.823424721,-3.102382394,-0.914720898
1.453513913,-2.962425568,-0.902536918
1.543861223,-2.625682774,-0.899587597
5.043712666,-11.24738701,0.909311817
4.995223651,-11.14863686,0.454152745
6.57721583,-11.21862466,0.112807682
5.820569772,-11.82786816,-0.118263002
6.650374871,-11.35930889,-0.367212666
6.292166363,-11.70828449,-0.730800862
4.862028355,-10.88954286,-0.865094194
4.918139863,-9.164188884,-0.952194016
3.62531784,-8.134535875,-0.974716614
3.467830766,-6.466367931,-0.943737987
2.604901052,-5.852876952,-0.940185559
2.63303093,-4.915917708,-0.925909687
2.035673901,-4.582506306,-0.925456015
2.121149308,-3.966543492,-0.918988312
1.665717183,-3.761368748,-0.918540408
1.773748927,-3.31774131,-0.915855434
1.409698665,-3.19363382,-0.919539564
1.48956792,-2.787944856,-0.897968303
5.019314257,-11.28558907,0.911151037
6.559633559,-11.26500985,0.589211454
6.394670127,-11.96292697,0.245063098
4.987918481,-11.23558804,0.008367579
4.969459557,-11.20666421,-0.440950026
6.536897686,-11.25304788,-0.83997589
4.816589044,-9.887156757,-0.903231673
4.904467967,-8.449664294,-0.990838216
3.517551008,-7.231157935,-0.956449456
3.382467793,-5.83170511,-0.933682626
2.597812501,-5.348246356,-0.929490535
2.615340855,-4.510191716,-0.919020463
2.058602735,-4.24493284,-0.916698688
2.131740822,-3.675773217,-0.912188916
1.701039266,-3.514335797,-0.909939858
1.785402281,-3.080809114,-0.905112988
1.455448302,-3.01297843,-0.915200402
1.533974536,-2.645892385,-0.903269794
6.486584483,-12.21258427,0.756178109
4.951709234,-11.23577252,0.456456017
6.500749287,-11.24578384,0.112677565
6.361275741,-11.99990607,-0.247977672
5.13741318,-11.68200238,-0.459030887
6.203852997,-11.71578746,-0.728879387
4.804343588,-10.94017463,-0.866758296
4.867868568,-9.205638553,-0.953379255
3.577731616,-8.162090537,-0.975369405
3.429942184,-6.491032047,-0.944248262
2.56576541,-5.861499045,-0.939023924
2.606501271,-4.938960918,-0.927220035
2.007911505,-4.595811844,-0.925637511
2.099511338,-3.984684916,-0.920189346
1.640268169,-3.766149992,-0.917232861
1.748829942,-3.319965928,-0.913490084
1.390846488,-3.203997403,-0.920049004
1.47870667,-2.808948846,-0.901794086
6.49038883,-11.30504644,0.589211454
5.400908491,-11.22890373,0.343693793
6.464225592,-11.26220625,0.112642867
6.327223964,-12.0246746,-0.248087225
5.102348227,-11.69954097,-0.45910277
6.152549757,-11.70559857,-0.727067763
4.780314766,-10.97680828,-0.868494698
4.835437586,-9.212593717,-0.952558678
3.553466211,-8.174851747,-0.975586962
3.411393937,-6.504159418,-0.944630924
2.553286021,-5.882049506,-0.941056741
2.590420978,-4.945186472,-0.926892448
1.99380226,-4.601950344,-0.92563751
2.075925403,-3.969402056,-0.915185057
1.62754526,-3.768476587,-0.916579117
1.731433165,-3.311539142,-0.909705605
1.379863214,-3.205584883,-0.919284815
1.469636466,-2.812619685,-0.901520856
6.451717264,-11.31796265,0.58885025
5.3685861,-11.24993186,0.343831659
6.426672628,-11.27677309,0.112590825
5.352127299,-11.22148715,-0.111534852
6.416538708,-11.2749959,-0.3619142
5.334470469,-11.19754226,-0.561711517
6.419731635,-11.28931337,-0.838236806
4.719390988,-9.918468847,-0.902085773
4.823051305,-8.488390849,-0.990131901
3.454257366,-7.270401291,-0.957394367
3.338921549,-5.880678446,-0.936563555
2.55271338,-5.380856312,-0.931035071
2.577122677,-4.540067015,-0.920235625
2.024908684,-4.275232798,-0.9191783
2.091061976,-3.683333774,-0.909250408
1.676946433,-3.547452475,-0.914479347
1.752667661,-3.089524363,-0.902895757
1.437533051,-3.047183315,-0.921532144
1.509084032,-2.659064478,-0.902986551
5.033930707,-11.71330366,0.473953438
6.258436819,-12.06179886,0.245496618
5.037055527,-11.73242629,0.008690901
6.262525559,-12.08102368,-0.248452304
5.027708175,-11.72419838,-0.458851149
6.043421147,-11.67130853,-0.722621019
4.72425797,-11.0325223,-0.870592842
4.766012327,-9.217321043,-0.950005929
3.501676694,-8.19284496,-0.975151788
3.375973805,-6.533780537,-0.945906583
2.521806964,-5.908524913,-0.942799221
2.555505259,-4.952221549,-0.925254514
1.96398611,-4.61047846,-0.924911525
2.056915084,-3.992516611,-0.917587066
1.605917448,-3.781985339,-0.917450833
1.722203802,-3.343695203,-0.915618922
1.356776162,-3.205976259,-0.91699236
1.45763376,-2.831847757,-0.904800068
5.002110907,-11.7281894,0.940578566
5.189812641,-11.0492265,0.336717904
6.353930087,-11.30989109,0.112530103
5.272124351,-11.23058159,-0.111301612
6.359951881,-11.33682109,-0.362639231
5.930453853,-11.53970921,-0.713343317
4.689608806,-11.04512818,-0.870448181
4.737711746,-9.231899807,-0.950005929
3.476524844,-8.203549148,-0.975151788
3.360891005,-6.553815282,-0.947309855
2.505981597,-5.921701122,-0.943670404
2.538051691,-4.955647963,-0.924435604
1.952510645,-4.622823487,-0.926181999
2.043318426,-3.996191705,-0.916986552
1.598472608,-3.796788841,-0.919847954
1.707957234,-3.341176746,-0.913490084
1.344314871,-3.203881794,-0.915209288
1.445000357,-2.828596631,-0.902340659
4.959113976,-11.72694665,0.939254329
5.137313263,-11.02522881,0.335504711
6.322611941,-11.33544413,0.112590825
5.207671806,-11.18234343,-0.110664677
6.314440203,-11.33706775,-0.36202572
5.925418815,-11.61744456,-0.71702146
4.655700718,-11.05946342,-0.870448181
4.711174197,-9.249940706,-0.95037059
3.450955354,-8.213259946,-0.975043009
3.340318537,-6.563211131,-0.947182241
2.488950615,-5.932098657,-0.944105995
2.523729916,-4.965170069,-0.92476319
1.941357474,-4.636048601,-0.927633968
2.030161797,-4.000693916,-0.916586243
1.586816643,-3.801675159,-0.919847954
1.697258966,-3.345534545,-0.913253572
1.337079049,-3.214240953,-0.91699236
1.451105008,-2.862187627,-0.911631834
4.902289794,-11.69244104,0.93528162
4.922050129,-11.74992086,0.473581952
6.291196265,-11.36091256,0.112651547
5.147339254,-11.14198581,-0.110108483
4.902631134,-11.72940539,-0.45726954
6.486786093,-11.74021168,-0.865740057
4.586057904,-9.951197171,-0.899875752
4.716118119,-8.542582996,-0.989627407
3.378476477,-7.342011853,-0.961291975
3.266026635,-5.920341964,-0.936426346
2.499277048,-5.439607612,-0.935823052
2.53928812,-4.60411987,-0.926832308
1.982115243,-4.321173651,-0.923756057
2.052315475,-3.720702677,-0.912188916
1.625179808,-3.550053683,-0.909939858
1.723979218,-3.127775244,-0.907822913
1.398828704,-3.061962631,-0.920740713
1.482359826,-2.688301,-0.906668749
5.157639557,-11.23309801,0.793256725
5.079149342,-11.07744269,0.336138875
4.985052401,-12.01595788,0.008854944
6.544441408,-11.92150814,-0.379399163
5.098470247,-11.13907449,-0.55478963
6.437299307,-11.73555943,-0.86393654
4.545561638,-9.943466094,-0.897911361
4.686062263,-8.550032729,-0.988820242
3.357584906,-7.355955396,-0.961764401
3.253557705,-5.9407599,-0.938072567
2.483805855,-5.449946983,-0.936286419
2.527515704,-4.616207344,-0.92770027
1.968848549,-4.327234407,-0.923756057
2.041830035,-3.728696623,-0.912608711
1.624750039,-3.578078633,-0.915841194
1.717166575,-3.138150863,-0.909301048
1.391418807,-3.070632712,-0.922059824
1.471342238,-2.687788553,-0.904969242
5.119429588,-11.24069473,0.792680348
5.071626073,-11.15120904,0.33790353
4.928766061,-11.98402865,0.00882023
6.512141122,-11.94943032,-0.379650158
5.840962514,-11.71706268,-0.719821269
4.539331764,-11.06677994,-0.867698857
4.616077694,-9.273296811,-0.948364834
3.373333414,-8.240074097,-0.974498998
3.278887465,-6.591900648,-0.946927133
2.43874041,-5.9657447,-0.945848417
2.481435931,-4.995255896,-0.926073482
1.900092115,-4.657362437,-0.928359955
1.997607411,-4.027987117,-0.918587947
1.553230325,-3.819735165,-0.920719614
1.662942817,-3.354049818,-0.911361303
1.300902225,-3.210278946,-0.912407392
1.402920175,-2.831463124,-0.897695015
5.08163314,-11.24907283,0.792167987
5.043145437,-11.17947211,0.338289559
4.89688431,-12.01113221,0.008829079
5.820336479,-11.75253293,-0.239452539
4.934296321,-12.11741372,-0.470605513
5.778423932,-11.68122904,-0.716527397
4.515125656,-11.10467613,-0.869579921
4.579666907,-9.271344179,-0.94672374
3.355513015,-8.268807297,-0.976674926
3.261721186,-6.608155077,-0.947820071
2.416710499,-5.964029057,-0.944396447
2.465662777,-5.001960107,-0.925909687
1.883951196,-4.658611199,-0.927452472
1.986105508,-4.035855019,-0.918988311
1.542233895,-3.82629265,-0.9211555
1.644924337,-3.343443175,-0.907103743
1.287442775,-3.205281609,-0.909860188
1.410779276,-2.869420371,-0.908352622
5.038936814,-11.24639532,0.790887083
5.016172192,-11.21131656,0.338785858
4.86675594,-12.04278705,0.008841331
5.78381188,-11.76943733,-0.239434285
5.733320089,-11.68007894,-0.715374524
4.485509414,-11.12957696,-0.870448181
4.548571562,-9.279985272,-0.946176689
3.328645152,-8.275373642,-0.976239752
3.243177462,-6.621693746,-0.948330347
2.396926774,-5.967743025,-0.943815601
2.451605899,-5.012159828,-0.926401068
1.870381673,-4.666195072,-0.927815466
1.974574174,-4.043690307,-0.919388618
1.532298112,-3.835537912,-0.922245075
1.644888947,-3.369429291,-0.912780491
1.292625298,-3.246950495,-0.920558445
1.39690808,-2.863360567,-0.905073354
4.996304489,-11.24356269,0.789606179
4.988645434,-11.24218573,0.339254589
5.004607957,-11.28453152,-0.110745419
6.243539813,-11.7211914,-0.85717344
4.426423342,-10.00579057,-0.898566178
4.582189606,-8.609529031,-0.989122915
3.267063072,-7.396604185,-0.961764401
3.191572947,-6.001228015,-0.941365008
2.412752941,-5.470976744,-0.934741884
2.472064441,-4.649485181,-0.928221096
1.918367377,-4.357358509,-0.925091261
2.006936559,-3.774190708,-0.91764608
1.580719226,-3.597747499,-0.915841195
1.686713065,-3.174392494,-0.913735456
1.355569117,-3.091893195,-0.923378933
1.445900772,-2.720038101,-0.909784405
4.96218857,-11.25975143,0.789670254
6.37272592,-12.02524576,0.118055558
6.355662063,-12.01077363,-0.379092408
5.426497638,-11.22867154,-0.685674781
4.425946622,-11.17914601,-0.872184583
4.493709328,-9.312204834,-0.946632546
3.281458686,-8.304886733,-0.977327715
3.203778725,-6.64414906,-0.948713068
2.36680035,-5.998904175,-0.946429264
2.422517655,-5.030663306,-0.927056241
1.840634316,-4.674838313,-0.927270976
1.948876411,-4.053963959,-0.918988313
1.509091399,-3.845776083,-0.922462989
1.622920862,-3.376831441,-0.912070897
1.278312444,-3.269230685,-0.924633915
1.390556953,-2.895290071,-0.912451694
5.109459213,-11.69098815,0.818810548
6.331613217,-12.0367754,0.117977491
5.370192785,-11.1867162,-0.22656442
5.092855363,-11.69078894,-0.577500608
6.145069034,-11.70891363,-0.853502091
4.355403039,-10.01082842,-0.896601728
4.532972363,-8.644531254,-0.989930081
3.231903311,-7.440191855,-0.964835233
3.169861271,-6.049652466,-0.94589216
2.386607357,-5.502899965,-0.937676459
2.447602039,-4.672417126,-0.929783452
