x,y,z
-2.584879111,6.283717744,1.853951917
-1.654019292,4.088626962,-0.946821003
-1.571103092,5.581675087,1.529884163
-1.568357732,4.380592097,-0.950615432
-1.502101923,5.406944539,1.715245399
-1.559822092,4.399234352,-0.953618014
-1.475633596,5.375561176,1.703845532
-1.548356917,5.633165318,1.541364135
-1.545993547,4.403074977,-0.953417804
-1.451624915,5.352373561,1.695076378
-1.532334434,5.642554747,1.542639675
-1.5276516,4.393915943,-0.950415279
-1.454501499,5.428853846,1.717876108
-1.494221278,5.569716355,1.521465603
-1.587581245,4.104398487,-0.944722086
-1.493076802,4.380949526,-0.945611144
-1.434221478,5.487639651,1.733660609
-1.56965667,4.133256955,-0.949129847
-1.559034478,4.14354393,-0.950389176
-1.387619845,5.516373956,1.738629848
-1.371611067,5.524317693,1.739799053
-1.335310568,5.449547706,1.714953096
-1.581645239,5.538098632,1.457170183
-1.313416121,5.432239338,1.708230051
-1.571231253,5.56624988,1.463301953
-1.495622571,4.167890983,-0.950599044
-1.517714004,5.440445853,1.659778346
-1.498975981,5.437676651,1.657522901
-1.271794555,5.480428829,1.719629916
-1.288253126,5.62973262,1.765229496
-1.350193923,5.891431793,1.594681684
-1.555258647,5.785279441,1.280464103
-1.52378549,5.733123579,1.743232476
-1.319539803,5.839901403,1.579630319
-1.328628423,5.97453203,1.870751649
-1.554462608,5.927142577,1.309727006
-1.360247493,6.206513797,1.942073975
-1.537987298,5.938510366,1.311190179
-1.416950779,5.535916046,1.679232227
-1.261442181,5.831952326,1.574273052
-1.522910537,5.955517138,1.313907435
-1.399490019,5.538376895,1.678668367
-1.23326677,5.787565519,1.561262552
-1.200077162,5.623623706,1.289231698
-1.396191415,5.597567899,1.695302829
-1.196437337,5.79846078,1.809659869
-1.364536913,5.617217088,1.698686107
-1.342824782,5.602716854,1.693047271
-1.323642709,5.598406993,1.690509783
-1.160813482,5.996730226,1.866951618
-1.519578533,5.557501294,1.631319162
-1.152360752,5.933081343,1.355082553
-1.585771691,5.825156196,1.229148855
-1.153142193,6.056630027,1.884489925
-1.547937992,5.730264859,1.680629251
-1.078241171,5.759341499,1.790952357
-1.490411082,5.585313617,1.636767743
-1.116835179,5.944835176,1.356176416
-1.562075381,5.88023508,1.238725057
-1.056758556,5.741930531,1.784521611
-1.475230288,5.597303193,1.638947246
-1.035733356,5.726324765,1.778675588
-1.459747642,5.608320859,1.640854237
-1.272270453,5.860909443,1.762404428
-1.283092023,5.910760946,1.530261689
-1.268128489,5.929521999,1.781858193
-1.268398821,5.930785687,1.534431273
-0.964892991,5.630045494,1.745937379
-0.985314611,5.72758633,1.303014439
-0.991879018,5.896097021,1.827490482
-0.968062978,5.732506701,1.303452055
-0.948716531,5.724860433,1.301045459
-1.563159731,5.568321742,1.5780835
-1.112585923,5.533416677,1.427982621
-1.226750751,6.199572293,1.857136117
-0.972113603,6.109450075,1.632182661
-0.934924626,5.864515442,1.331455033
-0.904008381,5.808604986,1.796798498
-1.326939411,5.664939636,1.647392629
-0.952471391,6.106671439,1.630652013
-1.391789509,5.961942276,1.485990403
-0.917681455,5.872176389,1.332548896
-1.1931993,6.23054053,1.864184605
-1.520922648,5.615995662,1.587559923
-1.152965228,6.020450224,1.550864632
-0.84052141,5.627713345,1.739214451
-1.294932921,5.685170404,1.650934216
-1.340554152,5.905927828,1.46995115
-0.876422396,5.842957192,1.324672978
-0.854521602,5.844121153,1.805275353
-1.3386187,5.961367915,1.729939338
-1.294630522,5.785780983,1.439051982
-0.859626589,5.853342103,1.326423209
-1.035485349,5.690004164,1.6995319
-1.049599397,5.76756095,1.483169133
-0.790678008,5.649417355,1.74359897
-1.305500954,5.985450891,1.734570622
-0.783458627,5.584343701,1.487791363
-1.30925486,6.02437267,1.496368762
-0.83605791,5.946436954,1.346331635
-0.772823489,5.648026647,1.742429766
-1.28207779,5.965910347,1.727759836
-0.773680812,5.640365758,1.502077404
-1.291986932,6.034062588,1.497784014
-0.982745826,5.697402403,1.698968039
-0.987243532,5.723477436,1.469433837
-1.48385411,5.936115483,1.422755664
-1.002016335,5.817000203,1.261652162
-0.740506082,5.67067945,1.747983606
-1.234842976,5.922801107,1.713048576
-0.797549567,6.091775121,1.620957912
-0.982697794,5.811369334,1.259770923
-0.938961096,5.650323706,1.683179365
-0.967680796,5.823148602,1.493470604
-1.463531218,6.011354508,1.438609308
-0.965184366,5.816286035,1.260188988
-0.931193014,5.71188749,1.700659619
-0.949221245,5.830802353,1.26269727
-0.491105559,4.09705625,-0.921373415
-0.905485404,5.663557857,1.685434923
-0.911270412,5.699741674,1.460358675
-0.929940631,5.824995804,1.260816029
-0.480570946,4.115992566,-0.925295997
-0.885134378,5.647352174,1.679796087
-0.892878914,5.696764163,1.458887037
-0.912065414,5.827821371,1.260816029
-0.468381838,4.121326563,-0.926167657
-0.872465289,5.680386989,1.688818202
-0.875102928,5.697560263,1.458396491
-0.4564862,4.129534397,-0.927693118
-1.096873478,5.816619265,1.436693306
-0.659455971,5.859620636,1.322047749
-1.093187939,5.80876589,1.203412643
-0.828086068,5.6210887,1.66964625
-0.834051314,5.661580802,1.447849686
-1.310896484,5.850986225,1.394218987
-0.427290695,4.095371288,-0.919412125
-0.658615872,6.231132326,1.915182026
-1.060019688,5.792317088,1.667280077
-0.617195923,5.804368135,1.308702626
-0.829359608,5.879721227,1.744924173
-0.795505447,5.639713506,1.44098204
-1.261922833,5.798959764,1.37995059
-0.399770948,4.073633362,-0.913964081
-0.606830107,6.098973383,1.873382361
-1.028810986,5.823346927,1.67436337
-0.774425177,5.744927454,1.70347904
-1.235481766,5.817836485,1.622833119
-0.759979258,5.637762923,1.439265186
-1.187674168,5.623619051,1.33646626
-0.552071676,5.916904977,1.816382915
-0.53383037,5.917618643,1.816090616
-1.019438984,6.097340883,1.750371691
-0.973976295,5.865701489,1.210594882
-0.290026015,3.430334036,-0.906803541
-0.715068954,5.700404966,1.688254341
-1.170764417,5.77412261,1.607565627
-0.73724283,5.887988674,1.268340876
-0.490143528,5.83310965,1.789198549
-0.920106384,5.718748563,1.64003694
-0.939203319,5.879308471,1.212190859
-0.452917929,3.874087215,-0.90903196
-0.470856752,5.817428445,1.783937011
-0.906605228,5.747205681,1.647392628
-0.449069032,3.946097395,-0.925601098
-0.453823407,5.82933314,1.787152439
-0.902052671,5.834588337,1.671638965
-0.884622617,5.750426951,1.412162659
-0.433210193,3.913576699,-0.917656989
-1.143941333,6.020259439,1.672057734
-1.111646406,5.886143438,1.392860121
-0.656385386,5.820795629,1.252037217
-0.236639819,3.423767537,-0.904001589
-0.843080163,5.713446078,1.401784298
-0.412022633,3.943282658,-0.924012274
-0.63987109,5.992125966,1.770862568
-0.614543966,5.767341347,1.239704898
-0.215445256,3.422259784,-0.903237457
-0.802568839,5.680022595,1.392349478
-0.388200405,3.949613807,-0.924920175
-0.599635398,5.961573108,1.760712731
-0.194168439,3.418689915,-0.901963825
-0.35965042,6.059131465,1.855259451
-0.821695436,6.050422218,1.728849645
-0.780186854,5.777292259,1.414993047
-0.363244199,3.944163016,-0.923104379
-0.56638043,6.000482219,1.771144498
-0.9602451,5.615230969,1.554392445
-0.972286023,5.724118647,1.350055165
-0.173041361,3.416919599,-0.901199692
-0.755131375,5.828250777,1.66401088
-0.751799423,5.836908195,1.428437824
-0.753671509,5.868418782,1.204609742
-0.201307501,4.127334642,-0.922680904
-0.90837025,5.515355401,1.525173533
-0.934629749,5.714596619,1.34643144
-0.187663867,4.106483773,-0.917886662
-0.272369128,5.788926383,1.771367938
-0.716764705,5.81176605,1.658017397
-0.718005978,5.875850684,1.205208174
-0.536975023,4.577406386,-0.941607679
-0.142225837,3.433826463,-0.905275219
-0.266119637,6.051514902,1.851459533
-0.703065369,5.848328375,1.667824982
-0.523151533,4.58097898,-0.942008042
-0.131430969,3.42748253,-0.903492147
-0.679342529,5.857758217,1.200619571
-0.509852068,4.589379017,-0.94340923
-0.120778623,3.424004083,-0.902473266
-0.867776836,5.747786813,1.351640527
-0.136768051,4.093846205,-0.914617825
-0.229268967,3.289889936,-0.902009297
-0.651254682,5.913509965,1.444005249
-0.641355931,5.843309515,1.196829071
-0.482704627,4.602164909,-0.945410932
-0.099710733,3.422747343,-0.901963824
-0.837235509,5.785778358,1.359340852
-0.112736775,4.134608094,-0.92355262
-0.209078268,3.291234744,-0.902009297
-0.601250814,5.806197952,1.18844985
-0.452628973,4.586514875,-0.94160768
-0.078596138,3.418460993,-0.900690251
-0.767675017,5.499678838,1.51517068
-0.807863341,5.835187968,1.369759028
-0.087571315,4.144979508,-0.925731826
-0.191199949,3.33290133,-0.913089804
-0.422312404,4.565791555,-0.936803604
-0.057733438,3.425647082,-0.902473266
-0.817940577,6.13446746,1.688641418
-0.774341835,5.857416156,1.373835629
-0.761869243,5.793417707,1.132329842
-0.061887887,4.128849531,-0.922027161
-0.16901935,3.300295954,-0.90385603
-0.395384539,4.580986258,-0.939405822
-0.324114911,3.759841466,-0.918693809
-0.080568382,6.072130486,1.856136355
-0.502029423,5.676385741,1.383150454
-0.381409663,4.583154501,-0.939605977
-0.312658835,3.761786436,-0.918930378
-0.483950993,5.670153388,1.381263491
-0.364607883,4.550120667,-0.932599985
-0.298016081,3.723986727,-0.909469035
-0.351173429,4.558056151,-0.934001173
-0.286738715,3.72682111,-0.909942117
-0.242466345,3.162224706,-0.900974285
-0.259515215,6.181933083,1.818228469
-0.687982246,5.842570233,1.605196463
-0.683725656,5.862800017,1.372476762
-0.485388964,4.340440151,-0.937585801
-0.403856962,3.621666474,-0.926299637
-0.340647227,3.049987561,-0.906385506
-0.240063195,6.170237022,1.81456326
-0.666647938,5.81494159,1.597036231
-0.659144158,5.806802427,1.358887859
-0.471859054,4.33996454,-0.937166003
-0.390863804,3.605544975,-0.921865232
-0.329942537,3.03862366,-0.902703311
-0.648163184,5.811206702,1.595456827
-0.641432903,5.809765212,1.359114355
-0.458028502,4.336530571,-0.936116547
-0.380510773,3.613474118,-0.923589714
-0.320316807,3.036760417,-0.901853531
-0.623813651,5.813642984,1.359567351
-0.444722076,4.337914986,-0.936116544
-0.36666392,3.587628101,-0.916691728
-0.311389366,3.041544917,-0.902986552
-0.607690741,5.831998422,1.363417455
-0.432281997,4.34801545,-0.938005595
-0.355464338,3.586807144,-0.916199035
-0.303193533,3.053938223,-0.906385507
-0.589305738,5.828990062,1.362285086
-0.418940445,4.349321072,-0.938005594
-0.343717513,3.580162982,-0.91422815
-0.295291864,3.070128262,-0.910917426
-0.551755059,5.630110287,1.315403409
-0.405685691,4.351559807,-0.938215465
-0.334435678,3.599535942,-0.918908959
-0.286049248,3.072929584,-0.911483909
-0.529694214,5.581354523,1.303626483
-0.547837113,5.814601865,1.131759068
-0.3919823,4.348888495,-0.937375872
-0.32191699,3.584135006,-0.914720898
-0.275674719,3.06328585,-0.908368198
-0.527857425,5.79279113,1.127193234
-0.378807817,4.352018804,-0.937795668
-0.30932848,3.566760373,-0.910040089
-0.266109352,3.062206269,-0.907801715
-0.21119071,4.566683265,-0.934001172
-0.171746864,3.722215902,-0.907103743
-0.143235498,3.122049671,-0.887857269
-0.196883521,4.560457568,-0.932599985
-0.159950209,3.713988657,-0.904974904
-0.136124775,3.180137915,-0.904253553
-0.334946177,4.306581712,-0.927301078
-0.277760198,3.585882937,-0.914228148
-0.237543106,3.05974476,-0.906385506
-0.16965866,4.582140894,-0.936803603
-0.137158592,3.714900157,-0.904974904
-0.115058694,3.138616265,-0.892229625
-0.155733033,4.586556626,-0.937604273
-0.126155232,3.726956431,-0.907813336
-0.105396726,3.137993235,-0.89195634
-0.141539977,4.583095439,-0.936803602
-0.114869951,3.732181716,-0.908996011
-0.095710321,3.136378789,-0.891409823
-0.127369615,4.57959081,-0.936002876
-0.104065102,3.755826444,-0.914672758
-0.08614038,3.138580873,-0.89195634
-0.112834345,4.560370535,-0.931999468
-0.09235045,3.748357489,-0.91278049
-0.076862554,3.153255038,-0.896055409
-0.25776011,4.348129949,-0.935067087
-0.20965499,3.555558291,-0.905359335
-0.181182975,3.06359886,-0.906385507
-0.08470452,4.553140741,-0.930398073
-0.069115605,3.736224635,-0.909705604
-0.057565716,3.156552819,-0.896875214
-0.070659194,4.548480546,-0.929397248
-0.057667694,3.737390547,-0.909942116
-0.047793746,3.150943544,-0.895235608
-0.056667679,4.545737189,-0.928796733
-0.046285339,3.744350925,-0.911597874
-0.037928713,3.134723615,-0.890590021
-0.042896223,4.564504385,-0.932599987
-0.034436457,3.705611887,-0.90213653
-0.028380836,3.142520471,-0.892776143
-0.189875143,4.325199296,-0.929399998
-0.156188127,3.583530527,-0.911764627
-0.134168483,3.066017724,-0.906385508
-0.014948861,4.583297029,-0.936403241
-0.011735407,3.717412808,-0.904974904
-0.009126007,3.152254591,-0.895508893
-0.162890004,4.314558207,-0.926881341
-0.134922253,3.60379147,-0.916691727
-0.115245076,3.063908075,-0.905535726
-0.148805149,4.290609465,-0.921634047
-0.123898628,3.605157103,-0.916938074
-0.106109459,3.071914948,-0.907801714
0.027142161,4.56756417,-0.933200501
0.022555627,3.729994426,-0.908049849
0.019613869,3.108918797,-0.883211681
0.041102154,4.561581327,-0.931999469
0.033857282,3.714362325,-0.904265312
0.029638872,3.160786416,-0.897968303
0.055096697,4.561433493,-0.931999468
0.044897518,3.685094292,-0.897169318
0.039299976,3.15779504,-0.8971485
0.068957165,4.552426454,-0.930197919
0.055921484,3.666480649,-0.892675189
0.048928082,3.153812246,-0.89605541
-0.083218752,4.30509513,-0.924362628
-0.067496639,3.549462152,-0.902403063
-0.05833219,3.039620779,-0.897888093
-0.069851537,4.295554196,-0.92226371
-0.056405823,3.537054921,-0.899200446
-0.049006488,3.039785365,-0.897888092
0.11068668,4.544742708,-0.928796733
0.090187189,3.687179838,-0.897878911
0.077952926,3.153228367,-0.89605541
0.123904018,4.517938009,-0.923392082
0.101418655,3.683972091,-0.897169319
0.086771375,3.122204325,-0.887310753
0.137794131,4.518516113,-0.923592236
0.112898754,3.689470617,-0.898588563
0.097032243,3.14403737,-0.893596002
0.151919052,4.525905788,-0.925193633
0.12389039,3.679396058,-0.896223212
0.106188209,3.129304085,-0.889496931
-0.003957427,4.301008962,-0.92331317
-0.002182334,3.601469802,-0.915459939
-0.002375074,3.043056655,-0.898737874
0.179764383,4.526846226,-0.925593938
0.146928271,3.690216857,-0.899061586
0.124886477,3.116098395,-0.885944375
0.022514736,4.31659584,-0.926671416
0.019798001,3.58009372,-0.910040088
0.016373857,3.057399314,-0.902986551
0.035709165,4.31064032,-0.925412089
0.030673153,3.567417293,-0.906837471
0.025584104,3.037195426,-0.897038367
0.048933853,4.310510269,-0.925412087
0.041459407,3.553738732,-0.903388506
0.03499013,3.044774617,-0.899304357
0.235098662,4.520385685,-0.924793269
0.193415429,3.71142334,-0.904738392
0.165279875,3.155637957,-0.897695015
0.248642569,4.513773174,-0.923592233
0.205764771,3.728275117,-0.90899601
0.175280021,3.160878864,-0.899334678
0.08794148,4.277619072,-0.918485669
0.074590118,3.573554962,-0.908561952
0.063448624,3.065418177,-0.905535726
0.276633328,4.517052292,-0.924593114
0.227506775,3.708516221,-0.90450188
0.193251855,3.136701069,-0.892776142
0.290364382,4.514227149,-0.924192752
0.238758335,3.705861598,-0.904028799
0.202812105,3.135133472,-0.892502913
0.127220635,4.273696709,-0.917856006
0.107564512,3.575623465,-0.90930105
0.091257911,3.051283644,-0.901570288
0.140620365,4.282081186,-0.919744998
0.117891572,3.555903654,-0.904373892
0.100998022,3.062491744,-0.904969244
0.332546904,4.520157625,-0.925994303
0.272070759,3.692848133,-0.901426936
0.232935261,3.150401836,-0.897421787
0.167006337,4.284068513,-0.92037466
0.140088539,3.564797727,-0.906837472
0.118287531,3.023481787,-0.893639415
0.181217047,4.308934714,-0.925831884
0.151927149,3.585653947,-0.912257321
0.127926773,3.031728259,-0.896188643
0.632857769,4.00248806,-0.90481137
0.538089227,3.376760762,-0.900690252
0.208405975,4.323366707,-0.929190127
0.171999717,3.544964444,-0.902156716
0.146387776,3.028012607,-0.89533892
0.656454641,3.992751479,-0.903503824
0.563223381,3.400107845,-0.907822423
0.670959162,4.004194252,-0.906554746
0.572686345,3.392642924,-0.906294102
0.246001916,4.283197138,-0.921004383
0.204451794,3.540328577,-0.90141762
0.175242914,3.043771286,-0.900437323
0.2587871,4.276566504,-0.919744997
0.215842006,3.548391111,-0.903634852
0.183012562,3.017372446,-0.892789688
0.272526699,4.285510271,-0.921843917
0.227469051,3.559318894,-0.906591125
0.191780879,3.009140068,-0.890523759
0.72800831,4.039841844,-0.916579116
0.609960014,3.361572657,-0.899926061
0.741279124,4.042389332,-0.917668749
0.621323693,3.365391183,-0.901454384
0.753677512,4.040095894,-0.917668748
0.629860812,3.353965137,-0.898907237
0.510076938,4.481886726,-0.921590532
0.417889397,3.668444016,-0.898825075
0.359129638,3.1452988,-0.899334679
0.950619022,5.0456849,0.190874186
0.774755664,4.016229308,-0.913310278
0.648585424,3.340544379,-0.896360033
0.609187587,3.856550412,-0.909939858
0.512880562,3.230400112,-0.894622255
0.551545028,4.478946899,-0.921990894
0.454131023,3.684693318,-0.903792286
0.387001728,3.133268045,-0.896875213
0.564915461,4.474317766,-0.921390379
0.465067943,3.680390878,-0.903082635
0.403500801,3.186461955,-0.912451693
0.644817333,3.851740682,-0.910166832
0.547870996,3.256932806,-0.903328408
0.834673957,3.996230032,-0.911566903
0.695773455,3.311275629,-0.891265624
0.603570359,4.450482239,-0.917587067
0.495393431,3.649959137,-0.896696294
0.426848476,3.138767792,-0.899881194
0.678544159,3.836052674,-0.907897087
0.571917252,3.218513054,-0.894094634
0.632105281,4.45542556,-0.919388618
0.51450186,3.623763339,-0.891019489
0.446641416,3.139899012,-0.900974284
0.648302136,4.470918598,-0.922991719
0.527151839,3.632744919,-0.893621351
0.456134006,3.137562104,-0.900700998
0.659862065,4.454370502,-0.919989133
0.545845985,3.682049921,-0.906157579
0.462083711,3.111408765,-0.893596001
0.670886949,4.434887888,-0.916386033
0.552486009,3.64961614,-0.898588562
0.47508869,3.132801962,-0.90015448
0.683592713,4.42699903,-0.915185057
0.565460781,3.659426719,-0.901426936
0.481901995,3.113268137,-0.894962322
0.696103958,4.418106365,-0.913783814
0.576079828,3.653835622,-0.900480773
0.494002112,3.127927741,-0.899607966
0.987603857,5.056496754,0.142109737
0.915174945,4.614138132,-0.914028282
0.757910553,3.806269894,-0.904492471
0.643547564,3.218731383,-0.897788097
0.723358222,4.414718942,-0.913984025
0.59848849,3.650232049,-0.900480773
0.510691188,3.109649988,-0.895235606
0.541262302,4.207676876,-0.910719661
0.453180511,3.514219937,-0.900678582
0.392468941,3.047621097,-0.907518473
0.552763817,4.195333862,-0.908410876
0.462310101,3.500322066,-0.897475963
0.403447402,3.058763173,-0.911200668
0.768811726,4.435869797,-0.919788981
0.629900647,3.632123886,-0.897405888
0.535833067,3.084915483,-0.889496932
0.580099455,4.203485517,-0.91092953
0.486700519,3.51854041,-0.902895756
0.421158089,3.04863,-0.908934681
0.591489884,4.191036935,-0.908620746
0.496949977,3.513192244,-0.901910371
0.42970424,3.041625772,-0.907235231
0.607137052,4.208556551,-0.91281858
0.508419374,3.516447098,-0.90314216
0.437388937,3.028902746,-0.903836277
1.319436309,5.096823839,1.389064493
0.816022829,4.387571795,-0.911782111
0.674958229,3.626986244,-0.898115482
0.579993883,3.112151194,-0.899334678
0.829844083,4.386973041,-0.912182475
0.68680525,3.628717148,-0.899061587
0.58398584,3.08105878,-0.89086325
0.950630197,5.032346798,0.280051797
0.84533482,4.39498971,-0.914384331
0.697016678,3.621822463,-0.897878913
0.596894308,3.097199138,-0.896055409
0.858062489,4.38852953,-0.913583662
0.708684625,3.622527526,-0.898588563
0.606948386,3.098185276,-0.896875212
0.870758414,4.382032085,-0.91278299
0.720742411,3.625101227,-0.899771181
0.613257587,3.080270445,-0.892229625
1.205765183,4.366580215,0.003083473
1.083585132,3.864117394,-0.896094491
0.912270179,3.238194671,-0.886171215
1.430827466,5.128978909,1.62755397
1.025734361,5.086861074,0.283764719
1.382887174,4.940801589,-0.184546953
1.098365398,3.871102445,-0.898491609
0.922465599,3.236310661,-0.886425908
1.434865383,5.083148835,1.61440018
1.036526924,5.060213473,0.282454281
1.303819645,4.60384384,-0.172109624
1.108351571,3.861148224,-0.89696615
0.932925978,3.235323704,-0.886935349
1.433383087,5.018951339,1.595400364
1.025404695,4.928946797,0.275301455
1.052098466,5.04665723,0.093133734
1.053010417,5.041341804,-0.094032174
0.919601509,4.348011616,-0.907978858
0.762156488,3.601724992,-0.896223214
0.643035387,3.034871215,-0.88129879
1.042172717,4.933593442,0.275738268
1.065505897,5.033624021,0.092953102
1.069301797,5.041999717,-0.094105197
0.93499343,4.354748885,-0.90998056
0.776263789,3.613618997,-0.89977118
0.655984242,3.04981187,-0.886217664
1.057722594,4.932325348,0.275847464
0.950226738,4.360475658,-0.911782111
0.785690743,3.603625849,-0.897878912
0.667184286,3.056243026,-0.888677127
1.071787898,4.924178826,0.275574474
1.039486416,4.766166272,0.08813023
0.96275381,4.353713033,-0.91098144
0.794853822,3.592660339,-0.895750132
0.679054099,3.065451891,-0.891956339
1.087320729,4.922817643,0.27568367
1.026449588,4.63799915,0.085818144
0.975891776,4.349783217,-0.910781231
0.803318573,3.57882847,-0.892911758
0.681916932,3.034259909,-0.883484969
1.104602066,4.929202149,0.276229679
1.029940838,4.587026666,0.084933052
0.990536607,4.352500432,-0.911982262
0.812353144,3.567820578,-0.890782977
0.696567715,3.055600256,-0.890316733
1.121932824,4.93552652,0.276775716
1.032462983,4.533151621,0.083993764
1.001902178,4.34084903,-0.910180712
0.817829923,3.541643924,-0.884869603
0.699221874,3.024395187,-0.881845305
1.138864069,4.939845257,0.277212529
1.03601446,4.485150202,0.083162861
1.013875315,4.332030912,-0.908979678
0.83422956,3.562768948,-0.890782977
0.702130256,2.995075902,-0.87392045
1.148558674,4.912993092,0.275902091
1.03586111,4.422568001,0.082061002
1.030780217,4.344153013,-0.912182475
0.843585136,3.553575377,-0.889127221
0.723104279,3.042508696,-0.888403841
1.02311125,3.239952115,0.126308334
1.20361452,4.352462206,-0.040512457
1.252827503,4.483177587,-0.904491298
1.030775816,3.677926151,-0.890193135
0.862445171,3.06802798,-0.871669698
1.426088583,5.133316941,1.565610632
1.024875202,5.06099932,0.233399798
1.024229154,5.05508829,0.044741409
1.025164202,5.043869508,-0.143588853
0.846591235,4.143047461,-0.907781212
0.706588011,3.452370006,-0.895751424
0.615410324,3.009552049,-0.907235232
1.042208764,5.066637825,0.233806183
1.031871639,5.013724141,0.044403115
1.040027411,5.037763894,-0.143505198
0.867642544,4.180638122,-0.91659662
0.71540124,3.441645917,-0.893534249
0.623275445,3.001076659,-0.905252483
1.059382275,5.071239637,0.234167417
1.049908266,5.023259449,0.04451588
1.056708844,5.040419638,-0.143672509
0.875424053,4.154038793,-0.911349325
0.725356237,3.436590137,-0.892795154
0.627928088,2.977566967,-0.898737873
1.071411952,5.051352473,0.233399799
1.060332478,4.996538396,0.044307699
1.060513581,4.982402096,-0.142110852
0.889800744,4.158982162,-0.913028448
0.734068581,3.425819612,-0.890577979
0.637863238,2.979377698,-0.899870839
0.900066317,4.144767563,-0.910509795
0.742309737,3.413133778,-0.887868053
0.643742451,2.962411907,-0.895338918
1.013227244,4.634351232,0.0411503
0.907517706,4.118116018,-0.905262498
0.752359831,3.40894771,-0.887375304
0.653860563,2.965105765,-0.896755126
1.023542082,4.613649142,0.040994162
0.925054503,4.137258399,-0.910089999
0.767262095,3.426484343,-0.892548807
0.658556966,2.943431706,-0.890806998
1.138581248,5.061215038,0.234483485
1.031982894,4.58512258,0.040768636
0.933417727,4.115330713,-0.905892163
0.784855091,3.455302609,-0.900678581
0.665886046,2.933915454,-0.888541011
1.150992115,5.044063225,0.233851334
1.040258432,4.556587859,0.040543107
0.94472382,4.106730541,-0.904632834
0.793493928,3.444378547,-0.898461349
0.6742386,2.92905493,-0.887691287
1.160830878,5.016176799,0.232722496
1.040023103,4.492000856,0.039996633
0.956652316,4.100956497,-0.904003114
0.799427498,3.422108763,-0.893287903
0.685837703,2.93817993,-0.891090242
1.160696311,4.946457394,0.229652037
1.036658968,4.415777063,0.039346071
0.969229387,4.098002382,-0.904003115
0.809699284,3.418697075,-0.8930415
0.695732181,2.939794872,-0.892223205
1.16823688,4.910801747,0.228161966
1.049506902,4.409657337,0.039320046
0.982481198,4.097861521,-0.904632834
0.823577707,3.430332839,-0.896736868
0.710564983,2.961893908,-0.899587598
1.181658252,4.900396476,0.227845883
1.065610176,4.41710977,0.039415462
0.994586898,4.09292788,-0.904213039
0.835472863,3.433440033,-0.898215002
0.713530694,2.934538858,-0.891939966
1.196924005,4.897718768,0.227891048
1.081769089,4.424504448,0.039510878
1.001995842,4.068971208,-0.899595407
0.848090874,3.439329707,-0.900432235
0.724595445,2.940716789,-0.894489196
1.14782923,4.635116113,0.215834995
1.093414477,4.413399693,0.039441487
1.013764479,4.063032215,-0.898965745
0.856054502,3.426368478,-0.89772231
0.727574136,2.91428705,-0.887124802
1.024234489,2.769673524,0.326639126
1.312034836,3.983881973,0.269179577
1.01159275,3.066210648,0.089059845
1.055527542,3.197129669,-0.030204926
1.477813213,4.435862097,-0.908496852
1.219873964,3.652478085,-0.897456319
1.030324131,3.076893553,-0.887499025
1.438381935,4.339521495,1.343442189
1.439070777,4.34159933,1.157200627
1.436608136,4.330879397,0.97529309
1.429869766,4.308552415,0.796700058
1.424566948,4.287816854,0.62286302
1.422601779,4.864180217,0.462467538
1.365785973,4.663871372,0.265746175
1.246026106,4.248317778,0.079983743
1.293016946,4.402273267,-0.083772791
1.258960523,4.24681986,-0.904976274
1.031257003,3.47737674,-0.882977391
0.879805546,2.963838784,-0.878292809
1.438086847,4.902583221,1.446610685
1.42133702,4.832052389,1.222522016
1.436372631,4.876565431,1.035030713
1.429841285,4.849706063,0.837575006
1.432820186,4.850445407,0.648078996
1.332957041,3.965351199,0.26847508
1.139225189,4.423484871,0.039623642
1.188256593,4.602226315,-0.132601482
1.054307127,4.065833123,-0.901694326
0.895591357,3.449300857,-0.905852027
0.750030236,2.890757745,-0.882026401
1.301762496,5.078159208,1.430409657
1.32341596,5.138758234,1.233870213
1.309201051,5.06927319,1.014569064
1.333564679,3.927224862,0.266169483
1.154809803,4.427709706,0.039693037
1.078566635,2.823022127,-0.108700817
1.685661392,4.405102194,-0.342145244
1.751789969,4.55218858,-0.900227871
1.442474121,3.735559226,-0.894133198
1.223345119,3.156764984,-0.891775065
1.422244659,4.740682324,1.401387091
1.438361717,4.781363568,1.21190774
1.428395658,4.741934258,1.008297076
1.429952937,4.742607537,0.820578382
1.424980064,4.717176581,0.631428976
1.322619003,3.856093669,0.261622305
1.165579794,4.413511395,0.039597621
1.082548616,2.807578136,-0.108233517
1.528598371,4.407191209,-0.906398708
1.254369146,3.607796939,-0.890193136
1.053718085,3.023030978,-0.87562703
1.341727468,5.103664717,1.43988596
1.346466062,5.098522457,1.226169772
1.350584902,5.100054683,1.022369047
1.364649362,5.137580707,0.829094853
1.363515909,5.122501702,0.628524842
1.116881513,3.224002086,0.21896858
1.178856399,4.408948468,0.039588945
1.084996408,2.788411123,-0.107622435
1.067650219,2.739586548,-0.213289106
1.069213957,2.738088845,-0.321714144
1.776100611,4.532198204,-0.898412852
1.455367802,3.701206435,-0.888031352
1.234172742,3.127610826,-0.885661774
1.426760443,4.651836655,1.377685543
1.425681881,4.635906708,1.177234646
1.43237578,4.651604648,0.990940085
1.431711166,4.645122137,0.805216059
1.43458212,4.645793705,0.623040456
1.341196901,4.332372534,0.24800065
1.075926177,2.743572133,0.002005959
1.557776384,4.435587838,-0.212903869
1.553910861,4.417921497,-0.384620361
1.548737119,4.378294108,-0.902393155
1.27583163,3.598196432,-0.889739186
1.069016603,3.007419897,-0.872988808
1.435184908,4.077010914,1.270137891
1.432471446,4.069302981,1.091467316
1.427378603,4.051899725,0.918230285
1.417919856,4.023256528,0.748645718
1.425467548,4.040398266,0.590634192
0.921090031,2.608159956,0.278377985
0.920218357,2.604533689,0.177275533
1.173251443,3.31517662,0.097000786
1.081879531,3.054958559,-0.029074596
1.549005254,4.367706186,-0.20987272
1.571126884,4.423464033,-0.385520719
1.562162157,4.373522066,-0.902393155
1.29014753,3.60343447,-0.892008932
1.08117087,3.012297049,-0.875363221
1.43129729,4.026484195,1.255758988
1.420920753,3.997292951,1.073316988
1.42439876,4.004197864,0.908406248
1.424972618,4.004040627,0.745879946
1.425888312,4.002411732,0.585717942
0.926747969,2.598761805,0.277677035
0.932228638,2.612977159,0.178044061
1.200572563,3.359568849,0.098406993
1.0791257,3.01772857,-0.028751645
1.565429115,4.371397693,-0.210279893
1.580316544,4.40642727,-0.384456656
1.57324138,4.362244886,-0.901057952
1.301527764,3.600375171,-0.892235906
1.084491947,2.992642214,-0.870614398
1.43554055,3.9994983,1.248710499
1.424334861,3.968278235,1.066694669
1.420478586,3.9547125,0.898164205
1.424259843,3.963500448,0.739138541
1.424748257,3.960731983,0.580255414
0.932356962,2.589353297,0.276976084
0.934491114,2.594143771,0.176955307
1.190517396,3.299452816,0.096752629
1.104339443,3.058608697,-0.029173275
1.553356955,4.296115801,-0.206886825
1.606383019,4.436231069,-0.387485169
1.582586821,4.346329383,-0.898769076
1.306557235,3.579897586,-0.888150366
1.09698235,2.998359495,-0.87325262
1.43603597,3.962602142,1.238560661
1.423620737,3.928343326,1.05712896
1.424936665,3.929191412,0.893356732
1.429358622,3.939668047,0.735508498
1.417955292,3.90419912,0.572607899
0.961713339,2.645391771,0.28328464
0.941763244,2.589388894,0.176827217
1.188658823,3.262911509,0.095787585
1.361678589,4.203199517,-0.080669416
1.452047081,4.475219563,-0.258678908
1.374814575,4.207649158,-0.904375755
1.143772362,3.499298566,-0.896223214
0.961296258,2.93841929,-0.87829281
1.429522878,4.417936314,1.314753887
1.42375812,4.388872504,1.119917867
1.431211592,4.406345445,0.943258513
1.428067187,4.392750372,0.765175866
1.433801764,4.402548205,0.593299227
1.076550542,3.301483259,0.316884325
1.17291181,3.592741431,0.206667198
1.01100047,3.092400301,0.058777573
1.371767863,4.190450224,-0.080505123
1.463281414,4.463153108,-0.258239711
1.385874054,4.197829675,-0.903174724
1.160596672,3.514225095,-0.900953855
0.963664873,2.915362788,-0.872280846
1.435295682,4.38975201,1.307670708
1.429951446,4.362321147,1.114256974
1.430667287,4.359106391,0.934081248
1.428297967,4.348045341,0.758148418
1.423428169,4.325580407,0.583512563
1.033817644,3.566801665,0.303682558
1.280747381,4.410103111,0.207571854
1.201007064,4.133910177,0.037342334
1.34088695,4.60488022,-0.133800608
1.435952178,4.925268928,-0.33113381
1.182644564,4.04565587,-0.904842703
0.988454091,3.3774182,-0.894519634
0.841850578,2.878356672,-0.885708539
1.427161077,4.932971331,1.401190745
1.427706557,4.914288406,1.189932772
1.436356146,4.931528555,0.995354434
1.434364568,4.910960353,0.797965253
1.431362382,4.891164098,0.604269328
1.172605698,2.816350506,0.225047306
1.197008622,2.872417722,0.115683575
1.653958134,3.964849268,0.002924194
1.28366212,3.073556115,-0.119808143
1.851167258,4.425852462,-0.348005631
1.83187948,4.371377794,-0.518746387
1.8871726,4.488152157,-0.898594348
1.549175607,3.672468279,-0.889992643
1.318471772,3.115081912,-0.891010874
1.430154231,3.403117006,1.128297122
1.428376424,3.40204463,0.97349316
1.412517603,3.367071498,0.818650108
1.415292561,3.37368611,0.678992371
1.387860958,3.308781873,0.530031006
1.13106573,2.696559603,0.323450785
1.277627647,4.300654411,0.202785557
1.065862894,3.15739194,-0.060844345
1.201564268,4.01865166,-0.900435
1.006101708,3.361076492,-0.891809768
0.86059547,2.876812242,-0.886841562
1.432760855,4.840865462,1.377499686
1.430086082,4.812069798,1.167284674
1.429867605,4.799368598,0.970432539
1.416673194,4.74207288,0.771921183
1.423759829,4.756711751,0.588726939
1.002193517,3.342332753,0.285344236
1.070170214,2.801430592,-0.026903646
1.533752924,4.49116076,-0.260929728
1.214453471,4.016818075,-0.900854737
1.01219704,3.344059654,-0.8881144
1.431085243,3.347672225,1.112804921
1.419601626,3.323858009,0.953594686
1.423576263,3.335904196,0.813180785
1.408181002,3.299828096,0.665854078
1.392607603,3.263808012,0.524185637
1.151100818,2.697796516,0.324440281
1.204836536,3.964822141,0.035945794
1.078607265,2.793960373,-0.135632333
1.063028317,2.749748019,-0.242116831
1.438532514,4.142757625,-0.895968522
1.197787184,3.448282047,-0.88865414
0.890292362,2.910913478,-0.899021117
1.433931525,4.737799471,1.350649938
1.43636353,4.726785612,1.14871318
1.431253232,4.698470151,0.951788684
1.431600513,4.686988418,0.76436999
1.438099839,4.699458035,0.582721892
1.208478168,3.933386658,0.03569424
1.331986142,3.082340926,-0.120778685
1.892267943,4.372596644,-0.345618049
1.900015779,4.382313982,-0.522771848
1.944068388,4.469164455,-0.899501829
1.592954829,3.650497586,-0.8893389
1.335269177,3.049946491,-0.877001279
1.423635495,3.646428383,1.1503136
1.421582455,3.641169969,0.988942916
1.412754027,3.616135382,0.829814306
1.411953443,3.612597601,0.680712696
1.413727901,3.613603066,0.534916546
0.998772527,2.550581522,0.275674318
1.002478337,2.558992723,0.176378901
1.075187683,3.064316134,0.058669193
1.386502241,4.45438676,-0.13014744
1.2408758,3.971873648,-0.893298655
1.035120895,3.309627135,-0.88146276
0.89154178,2.852304154,-0.882592883
1.421917201,4.596196423,1.312744364
1.428070435,4.597889917,1.119497128
1.429412875,4.591176903,0.93181308
1.427357147,4.572481078,0.747109976
1.424818665,4.555961285,0.566002073
1.028235948,3.282227743,0.281269037
0.995544012,3.17204889,0.150271719
1.063352421,3.386861898,0.03079333
1.395061379,4.433902373,-0.129673374
1.261299223,3.994153751,-0.899175614
1.042056241,3.296270722,-0.878752835
0.898265898,2.843154119,-0.880610136
1.418446404,4.535646465,1.296687113
1.430791131,4.557244413,1.110664316
1.425808966,4.530582837,0.920398494
1.429485958,4.530389966,0.740945722
1.423823858,4.504225151,0.560114802
1.045521675,3.301861971,0.283225141
1.000135873,3.152792112,0.149504115
1.012036015,3.189146613,0.029023798
1.404719571,4.417217342,-0.129310843
1.277114545,4.001442457,-0.901694327
1.058063586,3.311522268,-0.883679992
0.911943724,2.855916043,-0.885425297
1.426539428,4.512875711,1.29142247
1.428267746,4.500843615,1.097981401
1.420954243,4.467247328,0.908413132
1.429869128,4.483622413,0.7340109
1.425547332,4.461998485,0.555404964
1.060811069,3.314776044,0.284610682
1.003704145,3.130683048,0.14860103
1.709193906,3.829919676,0.002854765
1.407622576,3.15061926,-0.124121671
1.452107971,3.245624838,-0.257929334
1.889003179,4.21443729,-0.505473089
1.983036574,4.409992596,-0.892423477
1.629606405,3.612881568,-0.884980487
1.36701489,3.020996795,-0.873435192
1.424641096,3.169859396,1.062236105
1.410436463,3.141039064,0.908440533
1.40924293,3.140874434,0.771832624
1.413138024,3.149555587,0.640672426
1.407501562,3.137433284,0.507964651
1.198936097,2.672524068,0.324000489
1.218859188,2.713763058,0.219456077
1.225459506,2.726166519,0.111114186
1.124166272,3.078628473,-0.059840319
1.634643505,4.470317911,-0.261698271
1.530108359,4.157873003,-0.905176426
1.261391551,3.426562322,-0.888890709
1.069464974,2.90285057,-0.878839323
1.42103738,3.895902551,1.174179313
1.428171078,3.906350987,1.009529948
1.427728147,3.9007057,0.845700672
1.419454328,3.874957476,0.68362467
1.416528507,3.860710251,0.526953418
0.933972844,2.542635542,0.247182504
0.948371877,2.579053269,0.15026371
1.168357415,3.173189615,0.061089659
1.131531191,3.069536316,-0.059730785
1.621033612,4.391282306,-0.257361348
1.628568554,4.403884428,-0.429873119
1.542175016,4.151322177,-0.90477612
1.264452142,3.402639301,-0.883686985
1.075683344,2.892343118,-0.876653203
1.428993343,3.880689318,1.170910115
1.423997632,3.858190621,0.998208162
1.431197935,3.873328291,0.840713017
1.413884739,3.823393434,0.675289737
1.417686301,3.827511949,0.523013313
0.952502598,2.568703883,0.249999657
0.954542418,2.571451041,0.149990706
1.049201175,2.822828408,0.054406283
1.037030717,2.786807471,-0.054290758
1.029580534,2.762949979,-0.162113498
1.641026927,4.39606846,-0.429599594
1.544583587,4.119050141,-0.898770954
1.283416442,3.421487236,-0.889600303
1.081509157,2.880924271,-0.874193738
1.424465346,3.832094943,1.157560943
1.420560182,3.812825092,0.987594003
1.416363379,3.797306446,0.825151673
1.41318748,3.785764357,0.669406281
1.414138079,3.782265285,0.517420967
1.107086,3.318526692,0.28607776
1.722148842,3.735099095,0.00279963
1.28597191,3.075557425,-0.150969025
1.85484026,4.430208019,-0.39444255
1.553051569,4.103296088,-0.896368887
1.294595425,3.419350853,-0.890073325
1.082844118,2.857802966,-0.868181774
1.426412915,3.801582076,1.149660465
1.420278566,3.776613496,0.979338406
1.417303553,3.764514286,0.818967034
1.421316961,3.772178954,0.667772039
1.403321321,3.718516506,0.509286601
1.054463124,2.784546209,0.053792136
1.476864976,3.173960112,-0.125918974
1.454122163,3.12081016,-0.249753723
1.563884914,4.093935808,-0.895368006
1.280802458,3.351829934,-0.873516049
0.967750749,2.848635156,-0.88854101
1.433373803,4.260006429,1.22640382
1.418312018,4.199716345,1.030716486
1.428029933,4.219016362,0.86313518
1.418816699,4.181459968,0.688703502
1.421470905,4.182084258,0.523731472
1.748852983,3.732611703,0.002805756
1.308338113,3.075882526,-0.151376185
1.873396773,4.398571004,-0.392641805
2.057158421,4.358515176,-0.88951948
1.702930755,3.597269654,-0.888685154
1.439397199,3.031137362,-0.883878702
1.409302874,2.987414565,1.009621292
1.402466468,2.975479729,0.86787832
1.40403701,2.981105058,0.738797825
1.401747829,2.976244505,0.610563917
1.392942436,2.957950439,0.482975583
1.134989151,3.300656877,0.285425745
1.426577364,4.131965213,-0.121948746
1.52822229,4.421617939,-0.301955906
1.825327899,4.228723225,-0.894954259
1.517536345,3.508425915,-0.89087406
1.282074354,2.957678677,-0.881694961
1.426131322,3.31777893,1.061220634
1.411166039,3.28296346,0.904078299
1.403362964,3.262769599,0.7591651
1.405354006,3.266142235,0.624015448
1.402015217,3.255408752,0.488621795
1.154368352,2.67806902,0.293498522
1.062230641,2.725855646,-0.05341451
1.065670387,2.731018815,-0.161180238
1.051352271,2.689749611,-0.264397036
1.835550225,4.21680267,-0.893619055
1.527124781,3.50107569,-0.890193136
1.27877951,2.925449273,-0.873252621
1.408065694,3.248246996,1.040357101
1.40850743,3.249265761,0.895984286
1.403637783,3.236019861,0.75393956
1.398116766,3.222059139,0.616409716
1.406076556,3.237462516,0.486573304
1.162182526,2.673602228,0.293398385
1.198264768,2.755557278,0.192838366
1.220875641,2.803538847,0.084344909
1.150378916,2.640144044,-0.025836112
1.334595003,3.05913235,-0.151149985
1.920184118,4.39575524,-0.393951438
1.125609624,2.572745989,-0.334013229
1.851240515,4.217443279,-0.894954257
1.534721778,3.489242073,-0.888377339
1.294751573,2.937399606,-0.878001442
1.406111619,3.216659431,1.031617031
1.40332559,3.210285959,0.886418577
1.406896963,3.216467337,0.750386229
1.397729486,3.194293494,0.611915406
1.388580524,3.170521591,0.477150494
1.173175625,2.676403004,0.294099336
1.182667001,2.697031683,0.188995699
1.2125904,2.761339014,0.083186858
1.133131773,2.578926666,-0.025270946
1.350812551,3.070568276,-0.151919078
1.929241714,4.379810467,-0.393051079
1.139509596,2.582908331,-0.335784859
1.866157223,4.216232165,-0.895907933
1.541471036,3.47561466,-0.886107596
1.315509845,2.959856384,-0.885916102
1.41597363,3.212330313,1.03161703
1.403001357,3.182900994,0.880041476
1.402156673,3.179030157,0.742652408
1.401161275,3.175572341,0.609149692
1.393498548,3.155372183,0.475511753
1.187012547,2.685531743,0.295501237
1.19900717,2.711644895,0.190276588
1.224698862,2.765832128,0.083435014
1.152379935,2.601037156,-0.025522131
1.35617583,3.057277908,-0.151466664
1.840722072,4.144338781,-0.372424476
1.142988973,2.56942012,-0.334485657
1.879083695,4.210487121,-0.895907933
1.546958306,3.459311302,-0.883156926
1.308411724,2.919717369,-0.87509941
1.404000389,3.158873898,1.015828357
1.403309845,3.157320202,0.87415492
1.40514767,3.159523554,0.739099077
1.396884246,3.139762136,0.6030997
1.395113013,3.132983044,0.472780491
1.187955528,2.665519148,0.293698793
1.204069864,2.700661829,0.189764227
1.225435563,2.744718949,0.082911134
1.033819066,2.559648083,-0.050402415
1.059422422,2.619615917,-0.155361052
1.048760864,2.58896219,-0.255735765
1.040463297,2.566290266,-0.356166038
1.643684525,4.040350367,-0.891164446
1.3660351,3.35685158,-0.882267741
1.173332278,2.881148913,-0.883758198
1.4166735,3.511130697,1.072017546
1.417089423,3.504579551,0.917540129
1.406684167,3.475180616,0.763305178
1.410491033,3.481964116,0.622338698
1.398323821,3.446740831,0.476622123
1.093801476,2.693286763,0.265266793
1.110435454,2.731509594,0.161238639
1.164508262,3.187834564,0.029440159
1.149554656,3.140944667,-0.09330905
1.524509914,3.072569326,-0.248813162
1.26314565,2.541457324,-0.310616802
2.145891625,4.30453384,-0.887704519
1.764947224,3.530191239,-0.881275763
1.482048986,2.955443508,-0.87088799
1.34773889,2.704812007,0.923683614
1.36390723,2.739536288,0.807417635
1.37080822,2.755446447,0.690011362
1.382128705,2.778201389,0.575893561
1.289157996,2.591662486,0.4275905
1.278869173,2.57097837,0.317623835
1.223913739,2.700494583,0.190276588
1.236883156,2.725314779,0.082552687
1.048745047,2.551407011,-0.050365904
1.452365623,3.918285988,-0.897076697
1.222432105,3.294779611,-0.893287903
1.034356703,2.789359099,-0.878627446
1.413997108,3.847547327,1.118478167
1.416439341,3.840936555,0.951900966
1.411586155,3.81976469,0.78913041
1.419778996,3.833084853,0.637540009
1.421366721,3.831211348,0.484522227
0.949747951,2.556159021,0.222993948
1.017746014,2.734782966,0.131894146
1.058106391,2.842324472,0.026308781
1.451865726,3.167543078,-0.157800403
1.469919766,3.202946014,-0.289427034
1.192265772,2.593997497,-0.339564359
1.908826669,4.139864477,-0.885798688
1.583166058,3.426805697,-0.87975231
1.352247083,2.920947639,-0.880375851
1.406222107,3.06206524,0.990171895
1.403108989,3.055286328,0.850608643
1.393590864,3.032745992,0.713389447
1.403632489,3.053474807,0.589789685
1.396811819,3.35406245,0.465564478
1.046420706,2.784773362,0.025805678
1.481413293,3.202039561,-0.289754442
2.194355091,4.302121519,-0.891334443
1.790252335,3.49989526,-0.877789068
1.512718705,2.94856086,-0.872925752
1.313937685,2.577274387,0.884222421
1.331130965,2.613139964,0.773743335
1.330156133,2.613142975,0.657414118
1.348765328,2.649701481,0.55180673
1.399657726,3.017752238,0.458577955
1.058772452,2.786468921,-0.083158274
1.867461382,4.414182436,-0.438807916
2.206195061,4.292745245,-0.890789955
1.801875644,3.496121439,-0.878224898
1.522201706,2.94476513,-0.873180501
1.327956163,2.585140276,0.888314696
1.321922356,2.575495265,0.763794127
1.333268522,2.599499228,0.655007583
1.315158448,2.564189679,0.53483651
1.342081547,2.617019627,0.434458832
1.281587191,3.015420351,0.059193024
1.321127175,3.101233577,-0.185335303
1.061669646,2.762856479,-0.300177561
1.706200406,3.982393261,-0.885159278
1.416110284,3.304346575,-0.875171806
1.211000068,2.823700885,-0.872827361
1.414442446,3.327725371,1.023797153
1.409383901,3.308924133,0.872960387
1.41314866,3.314393165,0.733578972
1.40194277,3.28572629,0.591777429
1.400730475,3.278128872,0.456794638
1.065026522,2.751952993,-0.082321671
1.512528457,3.191871797,-0.29008185
2.22703496,4.268664882,-0.888612
1.817411914,3.473757609,-0.87539189
1.551474638,2.956776984,-0.879548484
1.345561913,2.580335409,0.88948396
1.341721467,2.575053146,0.766090098
1.336125269,2.566170303,0.648663202
1.341310723,2.576129805,0.539033453
1.338014059,2.570126527,0.42802892
1.34020401,2.574333202,0.321032058
1.355990965,2.601885042,0.216439754
1.395601268,2.675838319,0.112191518
1.289722387,2.470623758,0.001897051
1.367679697,2.617287718,-0.106220541
1.347387213,2.575168742,-0.210829178
1.354345545,2.584183975,-0.319320599
2.231884748,4.246143997,-0.885345069
1.830791174,3.473345821,-0.876699437
1.556019143,2.943454103,-0.877001279
1.35569591,2.580427921,0.890945465
1.355457875,2.582054058,0.7694065
1.345805011,2.565515455,0.649538259
1.349207874,2.572002546,0.539033453
1.331648084,2.538851334,0.42349873
1.347634004,2.569329159,0.320922117
1.367212448,2.603893542,0.216954724
1.425186541,2.712236399,0.113900398
1.800015702,3.42251729,0.002632183
1.562388938,2.96767982,-0.120634903
1.348770188,2.558670917,-0.209816272
1.358090117,2.572105283,-0.318341415
1.777510344,3.362328375,-0.55815805
2.243520575,4.236669651,-0.884800581
1.833199529,3.452197128,-0.872776854
1.564133166,2.936959311,-0.876491838
1.362264039,2.573720972,0.890068562
1.363373104,2.577883638,0.769406502
1.353669594,2.561374479,0.649538259
1.354795275,2.563504635,0.538121083
1.345439492,2.546124422,0.425398479
1.347151538,2.5493644,0.318943153
1.305881649,2.702891835,0.192646245
1.330383981,2.749929844,0.084262193
1.244713926,2.57147422,-0.025629781
1.542640457,3.183280937,-0.160198164
1.498770925,3.089045034,-0.28197854
1.234675155,2.541002207,-0.336021073
2.001156992,4.105861334,-0.887515362
1.655533882,3.390268195,-0.879298361
1.401518049,2.864376813,-0.872197319
1.407121334,2.898246424,0.94675319
1.393874249,2.870961328,0.807440515
1.392589897,2.866660137,0.681200197
1.384931055,2.849881964,0.556082483
1.276021312,2.623556371,0.402177507
1.284619701,2.639126832,0.295401102
1.316789155,2.704256214,0.193030502
1.345385853,2.759313033,0.084675782
1.258735322,2.580225516,-0.025755374
1.345471294,2.754848603,-0.138844443
1.909937784,4.292625924,-0.430146616
1.769484061,3.961120666,-0.886360313
1.479710515,3.311509791,-0.882977392
1.245924895,2.786352003,-0.867088686
1.402543505,3.164017602,0.979935762
1.399224161,3.150145999,0.836636182
1.400126243,3.149065058,0.701658238
1.396834321,3.139446858,0.569224165
1.404829347,3.152970027,0.442305315
1.212853434,2.719421752,0.271718994
1.217841788,2.728046304,0.163368105
1.299749935,2.908252642,0.057549277
1.162854728,2.59926326,-0.051990611
1.432273794,3.197587277,-0.192636723
1.904755999,4.245859185,-0.426043909
1.574817016,3.87913801,-0.898755817
1.303221975,3.207245483,-0.879984625
1.114741645,2.744766579,-0.874945251
1.411340052,3.504366065,1.030821546
1.410263187,3.490436075,0.875350302
1.413890702,3.492567892,0.730154891
1.395910304,3.44072715,0.579133536
1.393929695,3.430687378,0.439072522
1.152042634,2.83139559,0.249971651
1.159210858,2.844745524,0.138847818
1.39240122,3.4159794,0.031999042
1.128348517,2.763347829,-0.083269824
1.428131784,2.630455792,-0.217123667
1.675915006,3.081839464,-0.383946281
2.286396136,4.19241541,-0.881352095
1.871679156,3.422590729,-0.871033479
1.612611265,2.940436616,-0.883369262
1.399695289,2.56772595,0.893868537
1.398605016,2.567751697,0.771447363
1.387332038,2.548855344,0.650632124
1.391791977,2.557049233,0.540310781
1.391242577,2.556358733,0.429928671
1.284452765,2.578210263,0.289893632
1.303786574,2.616102548,0.187586719
1.331000241,2.667208771,0.082221814
1.178367705,2.591169191,-0.051972354
1.808707944,4.38688946,-0.306271401
1.686794831,3.07929893,-0.384272676
2.30114137,4.188828963,-0.88207808
1.893001308,3.436493962,-0.876045693
1.621157216,2.934628988,-0.88311457
1.409867805,2.567611023,0.895330044
1.410662177,2.571078168,0.773743336
1.400774701,2.55485442,0.653257411
1.385763293,2.527789354,0.425836872
1.332979961,2.655175365,0.299005991
1.306880011,2.60228043,0.186882223
1.308189872,2.601491356,0.080319294
1.43175787,2.602199056,-0.106831623
1.323393138,2.624303073,-0.241380177
1.827813376,3.96045825,-0.891164447
1.525123392,3.303688079,-0.885815766
1.298580902,2.811022655,-0.879659184
1.398792525,3.053841772,0.951057969
1.396835662,3.043534199,0.812813159
1.397758625,3.042603292,0.681707732
1.397509793,3.355676398,0.566959107
1.416271589,3.395716153,0.436246636
1.289173251,2.547504504,0.183231677
1.296284689,2.558231609,0.0791061
1.297261443,2.558829986,-0.025737433
1.304831348,2.570868218,-0.130565357
1.311121179,2.580247568,-0.237696863
1.301052718,2.556785734,-0.341217882
2.073715888,4.063084889,-0.886370951
1.708346112,3.341011192,-0.874531896
1.455763671,2.841528134,-0.87325262
1.314989881,2.58620887,0.852585362
1.326968092,2.609766453,0.740726109
1.358527726,2.669412901,0.525659557
1.421291867,3.37854037,0.43459821
1.189796885,2.824393183,0.250623667
1.188985021,2.818340505,0.138260817
1.335129069,2.613611041,-0.02632951
1.772218369,3.170800183,-0.263500312
1.823791069,3.888848621,-0.877552772
1.53051031,3.262600583,-0.877300585
1.30722052,2.784715704,-0.873920451
1.404104794,3.01641534,0.942067739
1.410242487,3.341861998,0.843416401
1.344239538,2.621410868,0.517016704
1.39790523,3.294632044,0.424354348
1.213656329,2.856504723,0.253802323
1.533269689,2.731985594,0.11646371
1.292344383,2.510812741,-0.025333743
1.778023737,3.158395222,-0.262921492
1.321274158,2.557576805,-0.342398979
2.086865858,4.02762276,-0.881411666
1.738685319,3.349482652,-0.879525335
